# .PCD v0.7 - Point Cloud Data file format
VERSION 0.7
FIELDS x y z
SIZE 4 4 4
TYPE F F F
COUNT 1 1 1
WIDTH 1666
HEIGHT 1
VIEWPOINT 0 0 0 1 0 0 0
POINTS 1666
DATA ascii
19.422001 21.912001 -0.55900002
19.476999 22.114 -0.56400001
19.441 22.215 -0.565
19.424 22.336 -0.56699997
19.396999 22.447001 -0.56900001
19.372999 22.490999 -0.56900001
19.336 22.591 -0.57099998
18.046 21.216 -0.52200001
19.355 22.903 -0.57700002
19.325001 23.014999 -0.579
22.629999 27.129 -0.71700001
22.540001 27.195999 -0.71600002
22.434 27.153999 -0.71399999
22.325001 27.195 -0.713
22.205 27.223 -0.71100003
22.083 27.247999 -0.70999998
21.987 27.304001 -0.70899999
21.899 27.370001 -0.70899999
21.789 27.409 -0.708
21.724001 27.415001 -0.70700002
21.598 27.433001 -0.70599997
21.469 27.445 -0.704
21.360001 27.483999 -0.70300001
21.243999 27.513 -0.70200002
21.18 27.608 -0.70300001
21.054001 27.624001 -0.70099998
16.58 21.816 -0.50999999
16.475 21.82 -0.50800002
16.4 21.862 -0.50800002
16.212999 21.754 -0.50300002
16.049999 21.677999 -0.49900001
15.962 21.701 -0.498
15.793 21.612 -0.493
15.748 21.694 -0.49399999
15.789 21.823 -0.498
15.703 21.848 -0.49700001
15.445 21.632 -0.48800001
15.213 21.448 -0.48100001
15.16 21.517 -0.48199999
14.985 21.410999 -0.477
14.825 21.325001 -0.47299999
14.776 21.325001 -0.472
14.728 21.399 -0.47299999
14.618 21.382999 -0.47099999
14.511 21.370001 -0.46900001
14.385 21.327999 -0.46599999
14.297 21.341999 -0.465
14.187 21.320999 -0.463
14.166 21.364 -0.46399999
14.032 21.306 -0.461
13.967 21.353001 -0.461
13.881 21.367001 -0.46000001
13.835 21.444 -0.461
13.756 21.469 -0.46000001
13.697 21.525999 -0.461
13.611 21.540001 -0.46000001
13.522 21.473 -0.45699999
13.422 21.462999 -0.45500001
13.274 21.375999 -0.45100001
13.228 21.451 -0.45199999
13.185 21.534 -0.454
13.107 21.558001 -0.45300001
13.063 21.561001 -0.45300001
12.93 21.493999 -0.449
12.822 21.466 -0.447
12.753 21.504999 -0.447
12.658 21.497999 -0.44600001
12.461 21.315001 -0.43900001
12.379 21.327999 -0.43799999
12.311 21.289 -0.43700001
12.259 21.353001 -0.43700001
12.197 21.4 -0.43799999
12.118 21.417999 -0.43700001
12.04 21.436001 -0.43599999
11.938 21.410999 -0.435
11.925 21.548 -0.43799999
11.834 21.542 -0.43599999
11.736 21.443001 -0.433
11.612 21.375999 -0.43000001
11.551 21.424999 -0.43000001
11.469 21.433001 -0.42899999
11.405 21.476 -0.42899999
11.267 21.377001 -0.42500001
11.138 21.292999 -0.42199999
11.117 21.336 -0.42300001
11.036 21.341999 -0.42199999
10.982 21.403 -0.42300001
10.921 21.450001 -0.42300001
10.876 21.528999 -0.42399999
10.745 21.436001 -0.421
10.719 21.552 -0.42300001
10.687 21.573999 -0.42300001
10.615 21.599001 -0.42300001
10.517 21.569 -0.421
10.515 21.739 -0.42500001
10.445 21.768 -0.42500001
10.422 21.896999 -0.428
10.335 21.891001 -0.42699999
10.209 21.799999 -0.42300001
10.183 21.834999 -0.42399999
10.093 21.820999 -0.42199999
10.045 21.896 -0.42300001
9.9460001 21.862 -0.42199999
9.9250002 21.999001 -0.42500001
9.8579998 22.035999 -0.42500001
9.7609997 22.003 -0.42300001
9.7559996 22.086 -0.42500001
9.6599998 22.056 -0.42300001
9.6029997 22.113001 -0.42399999
9.5220003 22.118 -0.42300001
9.4879999 22.23 -0.426
9.3959999 22.208 -0.42399999
9.3430004 22.278 -0.42500001
9.2779999 22.221001 -0.42300001
9.2629995 22.382999 -0.42699999
9.2259998 22.493999 -0.42899999
9.1890001 22.604 -0.43200001
9.1389999 22.687 -0.433
9.0970001 22.788 -0.435
9.0410004 22.857 -0.43599999
10.312 26.320999 -0.53200001
10.309 26.436001 -0.53500003
11.301 29.259001 -0.61299998
11.197 29.264999 -0.61199999
9.6949997 25.815001 -0.514
10.92 29.367001 -0.61199999
10.822 29.384001 -0.61199999
10.768 29.381001 -0.611
10.677 29.416 -0.611
10.581 29.441999 -0.611
10.492 29.483 -0.611
10.396 29.507999 -0.611
10.3 29.531 -0.611
10.203 29.549999 -0.611
10.148 29.542 -0.61000001
10.051 29.562 -0.61000001
9.9540005 29.582001 -0.60900003
9.8629999 29.618999 -0.60900003
9.7799997 29.677999 -0.61000001
9.6949997 29.735001 -0.611
9.6070004 29.783001 -0.611
9.5710001 29.832001 -0.61199999
9.4960003 29.921 -0.61400002
9.4130001 29.985001 -0.61500001
9.3260002 30.039 -0.616
9.2360001 30.082001 -0.616
9.1520004 30.146999 -0.61699998
9.0679998 30.209999 -0.61799997
9.0340004 30.27 -0.61900002
8.941 30.304001 -0.61900002
8.8529997 30.357 -0.62
8.0819998 28.370001 -0.565
7.9549999 28.26 -0.56099999
7.8499999 28.226999 -0.55900002
7.7459998 28.195999 -0.55800003
7.6929998 28.174999 -0.55699998
7.6069999 28.209 -0.55699998
7.5170002 28.229 -0.55699998
7.4349999 28.275999 -0.55800003
7.3600001 28.353001 -0.55900002
7.2820001 28.419001 -0.56
7.2909999 28.833 -0.57099998
7.7820001 30.989 -0.62900001
7.6810002 30.996 -0.62800002
7.599 31.084 -0.63
7.507 31.131001 -0.63
7.415 31.181999 -0.63099998
7.3319998 31.267 -0.63300002
7.2420001 31.325001 -0.634
7.204 31.386999 -0.63499999
7.1139998 31.448999 -0.63599998
6.5320001 29.292999 -0.57800001
6.3569999 28.936001 -0.56800002
6.2470002 28.868 -0.56599998
6.1409998 28.815001 -0.56400001
6.0380001 28.771999 -0.56199998
5.9419999 28.764999 -0.56099999
5.8920002 28.749001 -0.56099999
5.7940001 28.73 -0.56
5.698 28.721001 -0.55900002
5.6069999 28.737 -0.55900002
5.5159998 28.75 -0.55900002
5.427 28.771 -0.55900002
5.3390002 28.799999 -0.55900002
5.2930002 28.808001 -0.55900002
5.2059999 28.841999 -0.56
5.1259999 28.92 -0.56099999
5.0359998 28.940001 -0.56099999
4.9549999 29.016001 -0.56300002
4.9109998 29.316 -0.56999999
4.8590002 29.576 -0.57700002
4.8429999 29.773001 -0.58200002
5.1100001 32.061001 -0.64200002
5.0159998 32.116001 -0.64300001
5.0619998 33.102001 -0.66900003
4.961 33.133999 -0.66900003
4.8559999 33.140999 -0.66900003
4.7490001 33.139 -0.66799998
4.6999998 33.172001 -0.66900003
4.5939999 33.168999 -0.66799998
4.4860001 33.154999 -0.66799998
4.3839998 33.188999 -0.66799998
4.277 33.176998 -0.66799998
4.171 33.181999 -0.667
4.0640001 33.167 -0.667
3.9549999 33.144001 -0.66600001
3.908 33.188 -0.667
3.802 33.188 -0.66600001
3.6989999 33.208 -0.667
3.599 33.263 -0.66799998
3.494 33.27 -0.66799998
3.392 33.306999 -0.66799998
3.2909999 33.351002 -0.66900003
3.2420001 33.389999 -0.67000002
3.1389999 33.43 -0.671
3.0380001 33.478001 -0.67199999
2.934 33.507 -0.67199999
2.829 33.52 -0.67299998
2.7260001 33.553001 -0.67299998
2.6210001 33.569 -0.67299998
2.569 33.581001 -0.67400002
2.4660001 33.617001 -0.67400002
2.3599999 33.618 -0.67400002
2.2539999 33.630001 -0.67400002
2.148 33.631001 -0.67400002
2.0420001 33.631001 -0.67400002
1.936 33.625 -0.67400002
1.832 33.657001 -0.67400002
1.781 33.700001 -0.67500001
1.676 33.719002 -0.676
1.571 33.759998 -0.67699999
1.466 33.786999 -0.67699999
1.3609999 33.816002 -0.67799997
1.256 33.844002 -0.67799997
1.15 33.868999 -0.67900002
1.098 33.917 -0.68000001
0.99199998 33.942001 -0.68099999
0.88599998 33.957001 -0.68099999
0.77999997 34 -0.68199998
0.67400002 34.042 -0.68300003
0.56800002 34.068001 -0.68400002
0.461 34.110001 -0.685
0.40799999 34.133999 -0.685
0.301 34.16 -0.68599999
0.19400001 34.200001 -0.68699998
0.086000003 34.241001 -0.68800002
-0.015 29.652 -0.56900001
-0.12899999 34.266998 -0.68900001
-0.237 34.307999 -0.69
-0.245 29.304001 -0.55900002
-0.39899999 34.355 -0.69099998
-0.50700003 34.361 -0.69099998
-0.616 34.382999 -0.69199997
-0.72399998 34.407001 -0.69300002
-0.83399999 34.449001 -0.69400001
-0.94300002 34.476002 -0.69499999
-1.052 34.505001 -0.69599998
-1.107 34.516998 -0.69599998
-1.217 34.556999 -0.69700003
-1.327 34.611 -0.699
-1.437 34.618999 -0.699
-1.546 34.632 -0.699
-1.655 34.618999 -0.699
-1.487 28.402 -0.537
-1.569 28.271 -0.53399998
-1.846 31.43 -0.616
-2.151 34.708 -0.70200002
-2.029 31.190001 -0.61000001
-1.538 22.660999 -0.38800001
-1.954 27.431999 -0.51200002
-2.0550001 27.617001 -0.51700002
-2.461 32.330002 -0.64099997
-1.801 22.809999 -0.39199999
-1.869 22.756001 -0.391
-2.7980001 32.675999 -0.65100002
-1.926 21.788 -0.366
-1.995 21.785999 -0.366
-3.105 32.636002 -0.64999998
-3.158 32.653 -0.65100002
-3.2609999 32.651001 -0.65100002
-3.368 32.68 -0.65200001
-3.477 32.733002 -0.65399998
-3.5799999 32.722 -0.65399998
-3.2809999 29.163 -0.56099999
-3.349 28.955999 -0.55500001
-3.391 28.917999 -0.55500001
-3.4849999 28.933001 -0.55500001
-2.842 23.032 -0.40000001
-2.888 22.815001 -0.39500001
-2.9749999 22.924 -0.398
-3.016 22.681 -0.39199999
-3.0899999 22.688999 -0.39199999
-3.154 22.634001 -0.391
-3.2049999 22.733999 -0.39399999
-3.267 22.658001 -0.39199999
-3.289 22.32 -0.384
-3.349 22.24 -0.382
-3.415 22.208 -0.38100001
-3.464 22.061001 -0.37799999
-3.5009999 21.85 -0.37200001
-3.55 21.940001 -0.375
-3.619 21.926001 -0.375
-3.6900001 21.924999 -0.375
-3.773 22 -0.377
-3.8239999 21.885 -0.375
-3.904 21.931999 -0.37599999
-3.9860001 21.995001 -0.37799999
-4.013 21.945 -0.377
-4.1560001 22.327 -0.38800001
-4.191 22.132 -0.38299999
-4.224 21.93 -0.37799999
-4.2880001 21.889 -0.377
-4.3379998 21.785 -0.375
-4.4250002 21.862 -0.377
-4.4920001 21.841999 -0.377
-4.6230001 22.295 -0.389
-4.566 21.683001 -0.373
-4.842 22.635 -0.39899999
-4.9320002 22.702999 -0.40099999
-4.8379998 21.945999 -0.38100001
-4.9180002 21.979 -0.38299999
-5.0539999 22.257999 -0.38999999
-5.2090001 22.77 -0.40400001
-5.1199999 22.065001 -0.38600001
-5.204 22.113001 -0.38800001
-5.2490001 21.990999 -0.38499999
-5.3070002 21.931999 -0.384
-5.402 22.02 -0.38699999
-5.5250001 22.218 -0.39199999
-5.5320001 22.099001 -0.389
-5.5679998 21.950001 -0.38600001
-5.6269999 21.893 -0.38499999
-5.6950002 21.874001 -0.38499999
-5.7319999 21.738001 -0.382
-5.8210001 21.797001 -0.384
-5.8969998 21.805 -0.384
-5.9060001 21.704 -0.382
-5.9640002 21.646 -0.38100001
-6.0190001 21.583 -0.38
-6.1599998 21.822001 -0.38699999
-6.2220001 21.780001 -0.38600001
-6.2750001 21.705999 -0.384
-6.4310002 21.987 -0.39300001
-6.5510001 22.138 -0.39700001
-6.592 22.146999 -0.398
-6.6950002 22.237 -0.40099999
-6.6810002 21.941999 -0.39300001
-6.7030001 21.77 -0.389
-6.7670002 21.733999 -0.389
-6.8070002 21.622999 -0.38600001
-6.895 21.666 -0.38800001
-6.947 21.709999 -0.38999999
-7.0300002 21.733999 -0.391
-7.1030002 21.726999 -0.391
-7.2729998 22.01 -0.40000001
-7.3309999 21.955 -0.39899999
-7.355 21.799 -0.39500001
-7.434 21.806 -0.396
-7.5040002 21.899 -0.39899999
-7.573 21.877001 -0.39899999
-7.6370001 21.837999 -0.39899999
-7.7030001 21.806 -0.398
-7.7519999 21.726999 -0.39700001
-8.3430004 23.150999 -0.43700001
-8.3920002 23.059 -0.435
-10.793 28.927999 -0.60000002
-10.905 28.950001 -0.602
-11.048 29.049999 -0.60600001
-8.7010002 22.681 -0.42899999
-8.8339996 22.813 -0.433
-9.1090002 23.302999 -0.44800001
-9.1040001 23.183001 -0.44499999
-9.125 23.024 -0.44100001
-9.1899996 22.978001 -0.44100001
-9.2740002 22.976999 -0.44100001
-9.3100004 22.861 -0.43900001
-9.3669996 22.795 -0.43799999
-9.2659998 22.35 -0.426
-9.2950001 22.32 -0.426
-9.3610001 22.282 -0.426
-9.3789997 22.131001 -0.42199999
-9.3299999 21.826 -0.414
-9.4519997 21.919001 -0.41800001
-10.09 23.194 -0.45500001
-10.137 23.104 -0.45300001
-10.098 22.82 -0.44600001
-10.024 22.556999 -0.43900001
-10.109 22.558001 -0.44
-10.169 22.503 -0.43900001
-10.252 22.496 -0.44
-10.305 22.426001 -0.43900001
-10.338 22.313999 -0.43700001
-10.317 22.087 -0.43099999
-10.389 22.149 -0.433
-10.442 22.082001 -0.43200001
-10.566 22.164 -0.43599999
-10.642 22.143999 -0.43599999
-10.789 22.268 -0.44100001
-10.924 22.368999 -0.44400001
-10.956 22.256001 -0.442
-11.03 22.23 -0.442
-11.127 22.337999 -0.44600001
-11.19 22.289 -0.44600001
-11.283 22.298 -0.447
-11.361 22.278 -0.447
-11.535 22.443001 -0.45300001
-11.559 22.318001 -0.45100001
-11.741 22.496 -0.45699999
-11.796 22.514999 -0.458
-11.769 22.294001 -0.45300001
-11.901 22.372999 -0.456
-12.013 22.413 -0.458
-12.027 22.27 -0.45500001
-11.991 22.039 -0.44999999
-11.97 21.837 -0.44499999
-11.966 21.749001 -0.44299999
-12.068 21.771 -0.44400001
-12.074 21.622 -0.44100001
-12.174 21.641001 -0.44299999
-12.239 21.597 -0.44299999
-12.402 21.725 -0.44800001
-12.548 21.820999 -0.45199999
-12.566 21.774 -0.45100001
-12.724 21.888 -0.45500001
-12.786 21.836 -0.45500001
-12.959 21.973 -0.461
-13.061 21.987 -0.46200001
-13.576 22.690001 -0.48500001
-13.342 22.143 -0.46900001
-13.274 21.872999 -0.46200001
-13.294 21.83 -0.46200001
-13.329 21.733999 -0.46000001
-13.388 21.677 -0.46000001
-13.564 21.808001 -0.465
-13.685 21.848 -0.46799999
-13.751 21.801001 -0.46700001
-13.85 21.805 -0.46900001
-13.897 21.804001 -0.47
-14 21.813999 -0.47099999
-14.113 21.837999 -0.47299999
-14.299 21.975 -0.479
-14.441 22.040001 -0.48199999
-14.52 22.01 -0.48300001
-14.515 21.851999 -0.479
-14.652 21.983999 -0.484
-14.614 21.778999 -0.479
-14.763 21.851999 -0.48300001
-14.966 22.002001 -0.48899999
-15.275 22.304001 -0.5
-15.066 21.853001 -0.48699999
-15.077 21.722 -0.48500001
-15.416 22.063 -0.49700001
-15.796 22.528999 -0.51300001
-15.7 22.245001 -0.505
-15.747 22.163 -0.50400001
-15.858 22.172001 -0.50599998
-16.000999 22.222 -0.509
-16.127001 22.249001 -0.51200002
-16.162001 22.152 -0.50999999
-16.253 22.202 -0.51300001
-16.423 22.288 -0.51700002
-16.482 22.222 -0.51700002
-16.677999 22.337999 -0.52200001
-16.691999 22.209999 -0.51999998
-16.857 22.284 -0.52399999
-16.954 22.267 -0.52499998
-17.146 22.372 -0.52999997
-17.032 22.152 -0.52399999
-17.104 22.101999 -0.52399999
-17.500999 22.466999 -0.53799999
-17.612 22.464001 -0.54000002
-17.726 22.462999 -0.54100001
-17.622999 22.190001 -0.53399998
-17.570999 21.982 -0.52899998
-17.886999 22.305 -0.54100001
-17.938999 22.226999 -0.54000002
-17.927 22.069 -0.537
-18.000999 22.018999 -0.537
-18.833 22.888 -0.56800002
-19.403 23.429001 -0.58899999
-19.295 23.15 -0.58099997
-19.364 23.159 -0.583
-19.361 23.007999 -0.579
-19.374001 22.877001 -0.57700002
-19.087999 22.398001 -0.56300002
-19.284 22.483999 -0.56800002
-19.681999 22.802 -0.58099997
-19.684 22.660999 -0.57800001
-19.454 22.254 -0.56599998
-19.290001 21.997 -0.55800003
-19.277 21.843 -0.55500001
-19.486 21.941 -0.56099999
-19.444 21.756001 -0.55599999
-19.586 21.775999 -0.55900002
-19.555 21.605 -0.55500001
-19.636 21.558001 -0.55599999
-19.665001 21.521999 -0.55599999
-19.702 21.427 -0.55400002
-19.851 21.452999 -0.55699998
-19.969999 21.445999 -0.55900002
-20.124001 21.475 -0.56300002
-20.253 21.478001 -0.565
-20.385 21.482 -0.56800002
-20.438999 21.472 -0.56800002
-20.583 21.487 -0.57099998
-20.667 21.438999 -0.57200003
-20.84 21.483 -0.57599998
-20.948999 21.459999 -0.57700002
-21.125 21.504 -0.58099997
-21.312 21.558001 -0.58600003
-21.416 21.596001 -0.588
-21.488001 21.533001 -0.58899999
-21.648001 21.556999 -0.59200001
-21.747999 21.521 -0.59299999
-21.815001 21.452 -0.59299999
-22.059 21.556 -0.60000002
-22.413 21.764 -0.61000001
-22.448 21.729 -0.61000001
-22.499001 21.642 -0.60900003
-22.566 21.570999 -0.60900003
-22.875 21.729 -0.61799997
-22.950001 21.663 -0.61799997
-23.275 21.832001 -0.62699997
-23.374001 21.787001 -0.62900001
-23.511999 21.777 -0.63099998
-23.533001 21.728001 -0.63099998
-23.584 21.639 -0.63
-23.726 21.632 -0.63300002
-23.768999 21.535 -0.63200003
-23.941999 21.555 -0.63499999
-24.122999 21.580999 -0.639
-24.320999 21.621 -0.64399999
-24.371 21.597 -0.64399999
-24.415001 21.499001 -0.64399999
-24.530001 21.464001 -0.64499998
-24.628 21.413 -0.64600003
-24.844999 21.465 -0.65100002
-24.934999 21.407 -0.65200001
-25.101 21.412001 -0.65600002
-25.283001 21.43 -0.66000003
-25.367001 21.433001 -0.66100001
-25.629 21.516001 -0.66799998
-25.872999 21.583 -0.67400002
-26.014 21.563 -0.676
-26.101999 21.497 -0.67699999
-26.238001 21.471001 -0.67900002
-26.334 21.412001 -0.68000001
-26.525999 21.499001 -0.68599999
-26.691999 21.495001 -0.68900001
-26.789 21.434999 -0.69
-26.957001 21.43 -0.69300002
-27.159 21.452 -0.69800001
-27.424 21.521 -0.704
-27.573999 21.499001 -0.70700002
-27.639 21.48 -0.708
-27.806 21.469999 -0.71100003
-27.966999 21.454 -0.71399999
-28.056999 21.382999 -0.71499997
-28.24 21.382999 -0.71899998
-28.419001 21.378 -0.72299999
-28.6 21.374001 -0.72600001
-28.746 21.413 -0.73000002
-28.948 21.422001 -0.73400003
-29.072001 21.372 -0.736
-29.181999 21.313 -0.73799998
-29.412001 21.339001 -0.74299997
-29.656 21.374001 -0.74900001
-29.74 21.292 -0.74900001
-29.916 21.277 -0.75300002
-30.045 21.298 -0.75599998
-30.207001 21.27 -0.759
-30.601 21.403999 -0.76899999
-30.771999 21.379 -0.77200001
-30.929001 21.344999 -0.77499998
-31.113001 21.327999 -0.77899998
-31.329 21.330999 -0.78399998
-31.473 21.357 -0.787
-31.632999 21.320999 -0.79000002
-31.865 21.330999 -0.79500002
-32.007999 21.282 -0.79799998
-32.178001 21.249001 -0.801
-32.469002 21.295 -0.80800003
-32.625999 21.252001 -0.81099999
-32.747002 21.257 -0.81300002
-32.978001 21.26 -0.81900001
-33.25 21.288 -0.82499999
-33.525002 21.315001 -0.83099997
-33.691002 21.271999 -0.83399999
-33.941002 21.281 -0.83999997
-34.137001 21.254999 -0.84399998
-34.417 21.354 -0.852
-34.683998 21.368999 -0.85799998
-34.867001 21.330999 -0.861
-35.026001 21.277 -0.86400002
-35.276001 21.277 -0.87
-35.534 21.280001 -0.875
-35.764999 21.267 -0.88
-35.970001 21.235001 -0.88499999
-36.16 21.271 -0.889
-36.460999 21.294001 -0.89600003
-36.695999 21.277 -0.90100002
-36.986 21.290001 -0.90799999
-37.300999 21.315001 -0.91600001
-37.543999 21.298 -0.921
-37.776001 21.273001 -0.926
-37.867001 21.246 -0.92799997
-38.203999 21.277 -0.93599999
-38.382999 21.219 -0.93900001
-38.712002 21.242001 -0.94700003
-39.084999 21.287001 -0.95599997
-39.431 21.315001 -0.96399999
-39.605 21.247999 -0.96700001
-39.835999 21.292 -0.97299999
-40.205002 21.326 -0.98199999
-40.363998 21.247999 -0.98500001
-40.726002 21.275999 -0.99400002
-40.990002 21.25 -0.99900001
-41.328999 21.261 -1.007
-41.558998 21.214001 -1.012
-41.641998 21.174 -1.0140001
-42.140999 21.261 -1.026
-42.487999 21.268999 -1.034
-43.035 21.374001 -1.048
-43.808998 21.586 -1.069
-43.935001 21.476999 -1.071
-44.201 21.434999 -1.076
-44.473999 21.481001 -1.0829999
-44.694 21.415001 -1.0880001
-45.012001 21.393 -1.095
-45.238998 21.327 -1.1
-45.495998 21.273001 -1.105
-45.903 21.288 -1.115
-46.366001 21.326 -1.126
-46.720001 21.311001 -1.1339999
-47.061001 21.377001 -1.143
-47.409 21.356001 -1.151
-47.775002 21.34 -1.16
-48.191002 21.344 -1.17
-48.456001 21.280001 -1.175
-48.783001 21.24 -1.183
-49.265999 21.267 -1.1950001
-49.570999 21.306 -1.202
-50.021 21.313 -1.2130001
-50.578999 21.363001 -1.227
-50.971001 21.34 -1.2359999
-51.327999 21.299999 -1.244
-51.717999 21.271 -1.2539999
-51.933998 21.17 -1.258
-52.523998 21.313999 -1.273
-52.768002 21.219999 -1.278
-53.148998 21.179001 -1.2869999
-53.668999 21.191 -1.3
-54.040001 21.142 -1.309
-54.289001 21.042 -1.314
-54.547001 20.945999 -1.319
-54.741001 20.921 -1.324
-54.946999 20.802 -1.327
-59.360001 19.844 -1.427
-60.646999 19.745001 -1.459
-60.951 19.632 -1.465
-61.695999 19.659 -1.484
-62.347 19.65 -1.5
-62.911999 19.611 -1.5140001
-63.466 19.674 -1.528
-64.220001 19.687 -1.5470001
-54.844002 13.204 -1.266
-54.874001 13.029 -1.266
-54.986 12.874 -1.268
-55.027 12.701 -1.268
-55.039001 12.522 -1.267
-50.202 11.01 -1.136
-54.978001 11.693 -1.261
-55.134998 11.546 -1.2640001
-58.104 5.8979998 -1.318
-58.011002 5.7049999 -1.3150001
-57.937 5.5139999 -1.313
-57.945999 5.3309999 -1.313
-57.981998 5.2420001 -1.314
-58.042 5.0640001 -1.3150001
-58.221001 4.895 -1.319
-58.330002 4.7199998 -1.321
-71.605003 1.164 -1.663
-68.814003 -5.1589999 -1.595
-62.147999 -4.9520001 -1.421
-61.395 -5.086 -1.402
-59.356998 -5.1040001 -1.349
-57.396999 -5.1160002 -1.298
-55.159 -5.0900002 -1.24
-53.865002 -5.1409998 -1.206
-21.489 -2.2739999 -0.359
-21.466 -2.3399999 -0.35800001
-21.377001 -2.3640001 -0.35600001
-21.353001 -2.4289999 -0.35600001
-21.757 -2.5450001 -0.366
-40.549 -5.0240002 -0.861
-39.112999 -4.9699998 -0.82300001
-37.616001 -4.8990002 -0.78500003
-37.189999 -4.9029999 -0.77399999
-34.544998 -4.6630001 -0.704
-34.522999 -4.77 -0.704
-34.007 -4.8070002 -0.69099998
-33.584 -4.855 -0.68000001
-33.040001 -4.882 -0.66600001
-32.339001 -4.881 -0.648
-31.634001 -4.8759999 -0.63
-31.240999 -4.8660002 -0.62
-20.349001 -3.2260001 -0.333
-20.333 -3.289 -0.33199999
-20.349001 -3.3570001 -0.333
-20.351999 -3.4230001 -0.333
-20.364 -3.4909999 -0.33399999
-20.372999 -3.5580001 -0.33500001
-20.309999 -3.5799999 -0.333
-20.327 -3.6489999 -0.33399999
-23.829 -4.3600001 -0.42699999
-23.774 -4.427 -0.426
-23.743999 -4.4980001 -0.42500001
-23.747 -4.5760002 -0.426
-23.771999 -4.6589999 -0.42699999
-25.101999 -4.9619999 -0.463
-24.872999 -4.9970002 -0.45699999
-24.649 -5.033 -0.45100001
-24.356001 -5.052 -0.44400001
-23.941 -5.0440001 -0.433
-23.712 -5.0739999 -0.428
-23.322001 -5.0669999 -0.41800001
-22.721001 -4.973 -0.40200001
-22.215 -4.9349999 -0.389
-22.059 -4.973 -0.38499999
-22.038 -5.0409999 -0.38499999
-21.653999 -5.0240002 -0.375
-21.358 -5.026 -0.36700001
-21.173 -5.052 -0.36300001
-20.308001 -4.9120002 -0.34
-19.410999 -4.7259998 -0.31600001
-18.941999 -4.6750002 -0.30399999
-18.871 -4.7199998 -0.303
-18.983999 -4.8119998 -0.30599999
-18.851999 -4.8410001 -0.303
-18.26 -4.75 -0.287
-18.24 -4.8060002 -0.287
-18.023001 -4.7789998 -0.28200001
-17.829 -4.7870002 -0.27700001
-17.629 -4.7919998 -0.27200001
-17.122 -4.7119999 -0.25799999
-16.983999 -4.7309999 -0.255
-16.802 -4.737 -0.25
-16.709999 -4.7670002 -0.248
-16.608 -4.7659998 -0.24600001
-16.556999 -4.8080001 -0.245
-16.427999 -4.8270001 -0.242
-15.678 -4.658 -0.222
-15.514 -4.6620002 -0.21799999
-15.061 -4.5770001 -0.206
-15.302 -4.704 -0.213
-15.412 -4.7639999 -0.21600001
-15.124 -4.7270002 -0.208
-14.768 -4.6659999 -0.199
-14.462 -4.618 -0.191
-14.352 -4.6329999 -0.189
-14.301 -4.6659999 -0.18799999
-14.258 -4.7020001 -0.18700001
-14.196 -4.7059999 -0.185
-13.88 -4.6490002 -0.177
-13.734 -4.6479998 -0.17299999
-13.731 -4.6950002 -0.17399999
-13.722 -4.7399998 -0.17399999
-13.633 -4.757 -0.17200001
-13.377 -4.7150002 -0.16500001
-13.43 -4.7810001 -0.167
-13.133 -4.698 -0.15899999
-13.099 -4.7319999 -0.15800001
-12.945 -4.7220001 -0.155
-12.741 -4.6929998 -0.149
-12.563 -4.6719999 -0.145
-12.824 -4.8150001 -0.152
-12.717 -4.8210001 -0.15000001
-12.179 -4.6370001 -0.13500001
-12.122 -4.6589999 -0.134
-12.055 -4.677 -0.132
-11.848 -4.6389999 -0.127
-11.821 -4.671 -0.127
-11.81 -4.71 -0.127
-11.582 -4.6609998 -0.121
-11.721 -4.7379999 -0.125
-11.554 -4.7129998 -0.121
-11.451 -4.7119999 -0.118
-11.417 -4.7410002 -0.118
-11.301 -4.7340002 -0.115
-11.189 -4.7280002 -0.112
-11.012 -4.6939998 -0.107
-10.937 -4.6820002 -0.105
-10.854 -4.6859999 -0.104
-10.841 -4.7210002 -0.104
-10.733 -4.7140002 -0.101
-10.727 -4.7519999 -0.101
-10.634 -4.75 -0.098999999
-10.602 -4.776 -0.097999997
-10.591 -4.7909999 -0.097999997
-10.364 -4.7270002 -0.092
-10.167 -4.6760001 -0.086999997
-10.102 -4.684 -0.086000003
-9.9370003 -4.645 -0.081
-9.8929996 -4.6620002 -0.079999998
-9.7869997 -4.6490002 -0.078000002
-9.8260002 -4.7059999 -0.079000004
-9.7700005 -4.698 -0.078000002
-9.6870003 -4.6960001 -0.075999998
-9.5430002 -4.6620002 -0.071999997
-9.4399996 -4.6490002 -0.07
-9.4510002 -4.691 -0.07
-9.3559999 -4.6799998 -0.068000004
-9.066 -4.5700002 -0.059999999
-9.1129999 -4.612 -0.061999999
-9.2849998 -4.7360001 -0.067000002
-9.217 -4.7379999 -0.064999998
-9.1009998 -4.7140002 -0.063000001
-9.0450001 -4.7210002 -0.061000001
-9.0439997 -4.757 -0.061999999
-8.8970003 -4.7150002 -0.057999998
-8.8100004 -4.6859999 -0.055
-8.7659998 -4.698 -0.055
-8.5909996 -4.6389999 -0.050000001
-8.5030003 -4.625 -0.048
-8.724 -4.7820001 -0.055
-8.533 -4.7119999 -0.048999999
-8.6190004 -4.7950001 -0.052000001
-8.5959997 -4.8000002 -0.052000001
-8.3599997 -4.7020001 -0.045000002
-8.3590002 -4.7360001 -0.046
-8.3730001 -4.7789998 -0.046999998
-8.2840004 -4.7620001 -0.044
-8.1549997 -4.7220001 -0.041000001
-8.0620003 -4.7020001 -0.039000001
-8.0410004 -4.723 -0.037999999
-7.8990002 -4.6560001 -0.034000002
-8.0080004 -4.7550001 -0.037999999
-7.8150001 -4.6729999 -0.033
-7.7659998 -4.677 -0.032000002
-7.724 -4.684 -0.030999999
-7.7010002 -4.7030001 -0.030999999
-8.0240002 -4.9369998 -0.041000001
-7.5780001 -4.677 -0.027000001
-7.513 -4.6690001 -0.026000001
-7.4790001 -4.6810002 -0.025
-7.4260001 -4.6799998 -0.024
-7.539 -4.7849998 -0.028000001
-7.5289998 -4.8119998 -0.028000001
-7.5359998 -4.8499999 -0.028999999
-7.3909998 -4.7719998 -0.025
-7.3309999 -4.7659998 -0.023
-7.2249999 -4.7290001 -0.02
-7.152 -4.7129998 -0.018999999
-7.086 -4.7010002 -0.017000001
-7 -4.6760001 -0.015
-6.973 -4.6900001 -0.014
-7 -4.7399998 -0.016000001
-6.9310002 -4.7090001 -0.014
-6.8699999 -4.6989999 -0.012
-6.915 -4.7620001 -0.014
-6.849 -4.7480001 -0.013
-6.8130002 -4.7540002 -0.012
-6.7649999 -4.7529998 -0.011
-6.677 -4.7220001 -0.0089999996
-6.632 -4.7059999 -0.0070000002
-6.6300001 -4.7360001 -0.0080000004
-6.586 -4.7350001 -0.0070000002
-6.5580001 -4.7470002 -0.0060000001
-6.4029999 -4.664 -0.0020000001
-6.2360001 -4.572 0.003
-6.223 -4.592 0.003
-6.2119999 -4.5999999 0.003
-6.1900001 -4.6129999 0.003
-6.2579999 -4.6950002 0.001
-6.2750001 -4.7389998 -0
-6.2670002 -4.7639999 -0.001
-6.2649999 -4.7930002 -0.001
-6.0910001 -4.6900001 0.0040000002
-5.9499998 -4.5949998 0.0089999996
-5.915 -4.598 0.0089999996
-5.8720002 -4.5939999 0.0099999998
-5.8280001 -4.5890002 0.011
-5.809 -4.6040001 0.011
-5.796 -4.6230001 0.011
-5.7610002 -4.625 0.012
-5.757 -4.6370001 0.012
-5.7270002 -4.6420002 0.013
-5.7179999 -4.665 0.012
-5.6950002 -4.6750002 0.013
-5.6659999 -4.6820002 0.013
-5.5500002 -4.6149998 0.017000001
-5.494 -4.5970001 0.017999999
-5.4770002 -4.612 0.017999999
-5.4949999 -4.6430001 0.017000001
-5.5630002 -4.73 0.014
-5.4359999 -4.651 0.017999999
-5.4050002 -4.6539998 0.018999999
-5.474 -4.744 0.016000001
-5.3959999 -4.7059999 0.017999999
-5.355 -4.6989999 0.018999999
-5.349 -4.7090001 0.018999999
-5.3400002 -4.7309999 0.018999999
-5.3379998 -4.7600002 0.017999999
-5.3829999 -4.8299999 0.016000001
-5.3759999 -4.855 0.016000001
-5.3299999 -4.8439999 0.017000001
-5.2820001 -4.8309999 0.017999999
-5.2600002 -4.8249998 0.018999999
-5.2610002 -4.8569999 0.017999999
-5.2389998 -4.8660002 0.017999999
-5.2030001 -4.8639998 0.018999999
-5.158 -4.8520002 0.02
-5.132 -4.8579998 0.02
-5.1220002 -4.8790002 0.02
-5.0840001 -4.8579998 0.021
-5.0669999 -4.8730001 0.021
-5.0209999 -4.8579998 0.023
-4.9780002 -4.8470001 0.024
-4.9489999 -4.849 0.024
-4.9260001 -4.8569999 0.024
-4.9180002 -4.8800001 0.024
-4.9190001 -4.8959999 0.024
-4.8319998 -4.8390002 0.026000001
-4.8150001 -4.8530002 0.026000001
-4.7940001 -4.862 0.027000001
-4.7919998 -4.8899999 0.026000001
-4.7529998 -4.8800001 0.027000001
-4.7610002 -4.9200001 0.026000001
-4.7950001 -4.9710002 0.025
-4.789 -4.9959998 0.024
-4.7690001 -5.007 0.024
-4.7729998 -5.0430002 0.024
-4.7690001 -5.0700002 0.023
-4.7610002 -5.0939999 0.023
-4.7680001 -5.1339998 0.022
-4.7519999 -5.1490002 0.022
-4.7620001 -5.177 0.021
-4.75 -5.1960001 0.021
-4.7360001 -5.2140002 0.021
-4.711 -5.2179999 0.021
-4.6620002 -5.197 0.023
-4.638 -5.2030001 0.023
-4.612 -5.2069998 0.023
-4.6020002 -5.211 0.023
-4.7389998 -5.402 0.017000001
-6.059 -7.052 -0.037999999
-6.0689998 -7.1090002 -0.039000001
-5.868 -6.915 -0.032000002
-6.244 -7.3850002 -0.046999998
-6.3629999 -7.5749998 -0.052999999
-6.4749999 -7.8590002 -0.061000001
-6.6719999 -8.151 -0.07
-4.3000002 -5.2729998 0.027000001
-6.2639999 -7.724 -0.055
-6.1240001 -7.599 -0.050000001
-5.9889998 -7.5279999 -0.046
-5.9390001 -7.513 -0.045000002
-6.5650001 -8.3640003 -0.072999999
-6.5479999 -8.3959999 -0.072999999
-6.6529999 -8.559 -0.078000002
-6.4580002 -8.3610001 -0.071000002
-6.46 -8.5290003 -0.074000001
-6.4320002 -8.5469999 -0.074000001
-6.7249999 -9.0270004 -0.089000002
-6.7329998 -9.0979996 -0.090000004
-6.3709998 -8.7790003 -0.078000002
-6.2010002 -8.6009998 -0.071999997
-6.132 -8.5609999 -0.07
-6.2020001 -8.7180004 -0.074000001
-6.164 -8.6929998 -0.072999999
-3.6830001 -5.21 0.037999999
-3.6719999 -5.23 0.037999999
-5.9120002 -8.5620003 -0.067000002
-5.823 -8.4899998 -0.064000003
-5.9029999 -8.6949997 -0.068999998
-5.7529998 -8.5299997 -0.064000003
-3.4979999 -5.204 0.041000001
-5.8790002 -8.8979998 -0.072999999
-5.9089999 -9.0059996 -0.075999998
-5.9850001 -9.1850004 -0.081
-5.9959998 -9.2349997 -0.082000002
-6.0050001 -9.3129997 -0.083999999
-5.994 -9.3599997 -0.085000001
-5.9190001 -9.4379997 -0.086000003
-3.2279999 -5.1789999 0.046
-6.052 -9.7180004 -0.093999997
-3.1960001 -5.1630001 0.046
-5.961 -9.882 -0.096000001
-5.6900001 -9.4989996 -0.083999999
-6.5339999 -11.112 -0.131
-6.5250001 -11.177 -0.133
-6.4190001 -11.074 -0.12899999
-6.3520002 -11.039 -0.127
-6.4159999 -11.233 -0.133
-2.951 -5.1950002 0.048999999
-6.263 -11.044 -0.126
-6.026 -10.902 -0.12
-6.0840001 -11.091 -0.125
-2.846 -5.198 0.050000001
-2.865 -5.2719998 0.048
-2.858 -5.2989998 0.048
-6.414 -12.008 -0.15000001
-6.1960001 -11.866 -0.14399999
-6.0929999 -11.759 -0.141
-6.0219998 -11.71 -0.139
-5.9899998 -11.738 -0.139
-5.9970002 -11.799 -0.14
-5.9640002 -11.825 -0.141
-6.0190001 -12.03 -0.146
-2.6099999 -5.2249999 0.052000001
-6.2270002 -12.85 -0.168
-6.2859998 -13.024 -0.17200001
-6.336 -13.235 -0.178
-6.2490001 -13.267 -0.178
-6.3109999 -13.51 -0.184
-6.1290002 -13.226 -0.175
-6.3509998 -13.996 -0.19599999
-6.322 -14.048 -0.197
-6.3080001 -14.136 -0.199
-6.3319998 -14.311 -0.20299999
-6.599 -15.047 -0.22400001
-6.2420001 -14.351 -0.20299999
-6.2410002 -14.473 -0.206
-6.3309999 -14.748 -0.214
-2.23 -5.244 0.056000002
-9.8529997 -23.813999 -0.46700001
-9.6969995 -23.645 -0.46200001
-2.155 -5.2709999 0.056000002
-9.665 -23.778999 -0.465
-9.2580004 -23.299999 -0.449
-2.0580001 -5.2210002 0.057999998
-9.1639996 -23.275 -0.44800001
-8.9759998 -23.444 -0.44999999
-8.9860001 -23.582001 -0.45300001
-8.9239998 -23.642 -0.454
-8.6680002 -23.183001 -0.44100001
-8.5279999 -23.028 -0.43599999
-8.4980001 -23.171 -0.43900001
-8.3669996 -23.038 -0.43399999
-8.2919998 -23.054001 -0.43399999
-1.87 -5.2179999 0.059999999
-8.3699999 -23.389 -0.44299999
-1.846 -5.2010002 0.061000001
-7.7410002 -22.288 -0.41100001
-7.599 -22.103001 -0.405
-1.696 -4.9710002 0.068000004
-1.649 -4.8579998 0.071000002
-1.6289999 -4.848 0.071000002
-1.6059999 -4.8309999 0.071999997
-1.604 -4.8759999 0.071000002
-1.569 -4.8200002 0.072999999
-1.5650001 -4.8590002 0.071999997
-1.553 -4.875 0.071000002
-1.55 -4.8930001 0.071000002
-1.533 -4.8920002 0.071000002
-1.5190001 -4.901 0.071000002
-1.49 -4.8610001 0.071999997
-1.471 -4.8509998 0.072999999
-1.454 -4.8499999 0.072999999
-1.437 -4.848 0.072999999
-1.425 -4.835 0.072999999
-1.41 -4.842 0.072999999
-1.395 -4.8460002 0.072999999
-1.3789999 -4.849 0.072999999
-1.36 -4.8390002 0.074000001
-1.342 -4.8340001 0.074000001
-1.33 -4.848 0.074000001
-1.317 -4.8309999 0.074000001
-1.304 -4.842 0.074000001
-1.286 -4.8390002 0.074000001
-1.273 -4.849 0.074000001
-1.253 -4.8330002 0.075000003
-1.238 -4.8410001 0.074000001
-1.224 -4.849 0.074000001
-1.216 -4.8470001 0.074000001
-1.197 -4.8390002 0.075000003
-1.182 -4.8410001 0.075000003
-1.164 -4.8330002 0.075000003
-1.149 -4.8379998 0.075000003
-1.137 -4.855 0.075000003
-1.119 -4.8449998 0.075000003
-1.103 -4.8470001 0.075000003
-1.095 -4.849 0.075000003
-1.074 -4.823 0.075999998
-1.061 -4.836 0.075999998
-1.044 -4.8330002 0.075999998
-1.03 -4.8390002 0.075999998
-1.016 -4.8499999 0.075999998
-0.99900001 -4.8470001 0.075999998
-0.991 -4.8460002 0.075999998
-0.977 -4.8530002 0.075999998
-0.95899999 -4.8429999 0.075999998
-0.94499999 -4.8540001 0.075999998
-0.92699999 -4.8410001 0.075999998
-0.91399997 -4.8540001 0.075999998
-0.898 -4.8520002 0.075999998
-0.889 -4.848 0.075999998
-0.875 -4.8569999 0.075999998
-0.85699999 -4.8460002 0.075999998
-0.84299999 -4.8520002 0.075999998
-0.82499999 -4.8410001 0.077
-0.81 -4.8460002 0.077
-0.79500002 -4.848 0.077
-0.79000002 -4.8629999 0.075999998
-0.773 -4.8559999 0.077
-0.75800002 -4.8579998 0.077
-0.74299997 -4.8660002 0.075999998
-0.72600001 -4.855 0.077
-0.70300001 -4.802 0.078000002
-0.69499999 -4.8569999 0.077
-0.68800002 -4.8579998 0.077
-0.67199999 -4.8610001 0.077
-0.65399998 -4.8429999 0.077
-0.64499998 -4.8920002 0.075999998
-0.634 -4.928 0.075000003
-0.61900002 -4.9380002 0.075000003
-0.60399997 -4.9380002 0.075000003
-0.59500003 -4.9310002 0.075000003
-0.58099997 -4.9429998 0.075000003
-0.56199998 -4.915 0.075999998
-0.54900002 -4.9380002 0.075000003
-0.53399998 -4.9499998 0.075000003
-0.51899999 -4.9520001 0.075000003
-0.50099999 -4.9349999 0.075000003
-0.49399999 -4.9419999 0.075000003
-0.47799999 -4.9320002 0.075999998
-0.463 -4.9390001 0.075000003
-0.447 -4.941 0.075000003
-0.43000001 -4.9260001 0.075999998
-0.41600001 -4.9450002 0.075000003
-0.40099999 -4.947 0.075000003
-0.38499999 -4.9460001 0.075000003
-0.37599999 -4.9289999 0.075999998
-0.36199999 -4.948 0.075000003
-0.347 -4.9569998 0.075000003
-0.33000001 -4.9380002 0.075999998
-0.315 -4.9489999 0.075000003
-0.30000001 -4.9640002 0.075000003
-0.28299999 -4.9429998 0.075999998
-0.27599999 -4.9429998 0.075999998
-0.25999999 -4.948 0.075999998
-0.245 -4.9510002 0.075000003
-0.229 -4.954 0.075000003
-0.214 -4.948 0.075999998
-0.198 -4.9369998 0.075999998
-0.183 -4.9689999 0.075000003
-0.175 -4.948 0.075999998
-0.15899999 -4.9520001 0.075999998
-0.14399999 -4.9549999 0.075000003
-0.12800001 -4.9429998 0.075999998
-0.113 -4.954 0.075999998
-0.097000003 -4.9580002 0.075000003
-0.081 -4.954 0.075999998
-0.072999999 -4.934 0.075999998
-0.057999998 -4.948 0.075999998
-0.041999999 -4.9450002 0.075999998
-0.027000001 -4.9569998 0.075000003
-0.011 -4.941 0.075999998
0.0040000002 -4.9489999 0.075999998
0.02 -4.947 0.075999998
0.027000001 -4.9450002 0.075999998
0.043000001 -4.9429998 0.075999998
0.057999998 -4.9359999 0.075999998
0.074000001 -4.9580002 0.075000003
0.090000004 -4.9699998 0.075000003
0.105 -4.9580002 0.075000003
0.121 -4.9450002 0.075999998
0.12899999 -4.9590001 0.075000003
0.14399999 -4.9369998 0.075999998
0.16 -4.9559999 0.075000003
0.175 -4.9419999 0.075999998
0.191 -4.961 0.075000003
0.206 -4.9429998 0.075999998
0.222 -4.9400001 0.075999998
0.229 -4.9359999 0.075999998
0.245 -4.9349999 0.075999998
0.25999999 -4.9239998 0.075999998
0.27500001 -4.915 0.075999998
0.292 -4.9439998 0.075999998
0.30700001 -4.9310002 0.075999998
0.322 -4.9299998 0.075999998
0.329 -4.9239998 0.075999998
0.34599999 -4.9369998 0.075999998
0.36199999 -4.9419999 0.075999998
0.377 -4.9359999 0.075999998
0.39300001 -4.9390001 0.075999998
0.40900001 -4.9439998 0.075000003
0.42199999 -4.9190001 0.075999998
0.44 -4.9429998 0.075000003
0.44600001 -4.9190001 0.075999998
0.46399999 -4.947 0.075000003
0.479 -4.9439998 0.075000003
0.49399999 -4.9320002 0.075000003
0.51200002 -4.954 0.075000003
0.52600002 -4.9349999 0.075000003
0.542 -4.9450002 0.075000003
0.55000001 -4.9400001 0.075000003
0.56599998 -4.9429998 0.075000003
0.58099997 -4.941 0.075000003
0.597 -4.9429998 0.075000003
0.61299998 -4.9390001 0.075000003
0.62800002 -4.9349999 0.075000003
0.64399999 -4.941 0.075000003
0.65100002 -4.934 0.075000003
0.66799998 -4.9439998 0.075000003
0.68099999 -4.9219999 0.075000003
0.699 -4.9359999 0.075000003
0.71499997 -4.9349999 0.075000003
0.73000002 -4.9310002 0.075000003
0.74800003 -4.9429998 0.074000001
0.755 -4.9369998 0.075000003
0.76899999 -4.927 0.075000003
0.78500003 -4.9310002 0.075000003
0.80199999 -4.934 0.074000001
0.81800002 -4.9349999 0.074000001
0.83399999 -4.9369998 0.074000001
0.85000002 -4.9380002 0.074000001
0.85900003 -4.9429998 0.074000001
0.87400001 -4.934 0.074000001
0.89099997 -4.9429998 0.074000001
0.90600002 -4.9359999 0.074000001
0.92299998 -4.9390001 0.074000001
0.93599999 -4.9229999 0.074000001
0.95499998 -4.941 0.074000001
0.963 -4.9400001 0.074000001
0.98100001 -4.9499998 0.072999999
0.99699998 -4.9450002 0.072999999
1.011 -4.9380002 0.072999999
1.029 -4.9429998 0.072999999
1.041 -4.9239998 0.074000001
1.0599999 -4.9359999 0.072999999
1.066 -4.927 0.072999999
1.0829999 -4.9310002 0.072999999
1.101 -4.9400001 0.072999999
1.117 -4.9400001 0.072999999
1.131 -4.9289999 0.072999999
1.148 -4.9310002 0.072999999
1.166 -4.9390001 0.071999997
1.174 -4.9369998 0.071999997
1.187 -4.9219999 0.072999999
1.2029999 -4.9219999 0.072999999
1.223 -4.9359999 0.071999997
1.238 -4.9299998 0.071999997
1.252 -4.9200001 0.071999997
1.268 -4.9180002 0.071999997
1.286 -4.9260001 0.071999997
1.296 -4.9310002 0.071999997
1.313 -4.9330001 0.071999997
1.329 -4.9289999 0.071999997
1.346 -4.9299998 0.071000002
1.363 -4.934 0.071000002
1.38 -4.9310002 0.071000002
1.3940001 -4.9229999 0.071000002
1.403 -4.927 0.071000002
1.4220001 -4.9320002 0.071000002
1.433 -4.914 0.071000002
1.4529999 -4.9250002 0.071000002
1.473 -4.9359999 0.07
1.488 -4.9289999 0.07
1.5039999 -4.9260001 0.07
1.516 -4.9369998 0.07
1.53 -4.9289999 0.07
1.548 -4.9289999 0.07
1.568 -4.9400001 0.07
1.585 -4.9390001 0.07
1.603 -4.941 0.068999998
1.6160001 -4.9289999 0.07
1.617 -4.9070001 0.07
1.638 -4.9190001 0.07
1.661 -4.9349999 0.068999998
1.673 -4.9180002 0.068999998
1.6900001 -4.9190001 0.068999998
1.714 -4.9380002 0.068000004
1.721 -4.908 0.068999998
1.732 -4.914 0.068999998
1.756 -4.9320002 0.068000004
1.7690001 -4.9200001 0.068000004
1.786 -4.9190001 0.068000004
1.8049999 -4.9219999 0.068000004
1.8200001 -4.9169998 0.068000004
1.839 -4.9200001 0.068000004
1.85 -4.927 0.068000004
1.865 -4.9190001 0.068000004
1.881 -4.9130001 0.068000004
1.899 -4.915 0.067000002
1.923 -4.9289999 0.067000002
1.937 -4.9190001 0.067000002
1.951 -4.9109998 0.067000002
1.962 -4.9159999 0.067000002
1.9859999 -4.9299998 0.066
1.999 -4.9180002 0.066
2.016 -4.915 0.066
2.036 -4.9200001 0.066
2.0510001 -4.9120002 0.066
2.072 -4.9180002 0.066
2.0810001 -4.9190001 0.064999998
2.102 -4.9250002 0.064999998
2.1170001 -4.9180002 0.064999998
2.1389999 -4.9260001 0.064999998
2.1500001 -4.9089999 0.064999998
2.174 -4.9219999 0.064000003
2.1900001 -4.915 0.064000003
2.21 -4.9190001 0.064000003
2.221 -4.9229999 0.064000003
2.2309999 -4.9029999 0.064000003
2.2539999 -4.914 0.064000003
2.276 -4.9200001 0.063000001
2.2909999 -4.9130001 0.063000001
2.316 -4.9250002 0.063000001
2.329 -4.9130001 0.063000001
2.342 -4.9200001 0.063000001
2.362 -4.921 0.061999999
2.3789999 -4.9169998 0.061999999
2.4070001 -4.9349999 0.061999999
2.4219999 -4.927 0.061999999
2.4349999 -4.914 0.061999999
2.4579999 -4.921 0.061000001
2.467 -4.921 0.061000001
2.487 -4.9219999 0.061000001
2.507 -4.9229999 0.061000001
2.5220001 -4.9130001 0.061000001
2.546 -4.921 0.059999999
2.5669999 -4.9239998 0.059999999
2.5880001 -4.9260001 0.059999999
2.5940001 -4.921 0.059999999
2.6140001 -4.9190001 0.059
2.6329999 -4.9180002 0.059
2.658 -4.927 0.059
2.677 -4.9260001 0.059
2.7 -4.9299998 0.057999998
2.72 -4.9299998 0.057999998
2.7279999 -4.9260001 0.057999998
2.7479999 -4.9260001 0.057999998
2.7679999 -4.9260001 0.057
2.7809999 -4.9120002 0.057999998
2.8050001 -4.9190001 0.057
2.8239999 -4.915 0.057
2.855 -4.934 0.056000002
2.8659999 -4.9349999 0.056000002
2.881 -4.9239998 0.056000002
2.908 -4.9349999 0.055
2.924 -4.9260001 0.055
2.941 -4.9200001 0.055
2.961 -4.9180002 0.055
2.983 -4.9190001 0.055
2.997 -4.9239998 0.054000001
3.0190001 -4.927 0.054000001
3.0409999 -4.928 0.054000001
3.056 -4.9159999 0.054000001
3.0710001 -4.9070001 0.054000001
3.0999999 -4.9190001 0.052999999
3.128 -4.928 0.052999999
3.131 -4.9159999 0.052999999
3.1719999 -4.9450002 0.052000001
3.1830001 -4.928 0.052000001
3.2060001 -4.9299998 0.050999999
3.2290001 -4.9310002 0.050999999
3.2449999 -4.921 0.050999999
3.2709999 -4.928 0.050999999
3.29 -4.9390001 0.050000001
3.3039999 -4.927 0.050000001
3.329 -4.9299998 0.050000001
3.349 -4.9260001 0.048999999
3.375 -4.9299998 0.048999999
3.4000001 -4.934 0.048
3.421 -4.9320002 0.048
3.434 -4.9330001 0.048
3.46 -4.9369998 0.048
3.4820001 -4.9359999 0.046999998
3.4990001 -4.9260001 0.046999998
3.54 -4.9510002 0.046
3.5510001 -4.9330001 0.046
3.553 -4.9050002 0.046999998
3.586 -4.9330001 0.046
3.6040001 -4.9250002 0.046
3.622 -4.9169998 0.046
3.6500001 -4.9229999 0.045000002
3.6730001 -4.921 0.045000002
3.6860001 -4.9060001 0.045000002
3.7149999 -4.9120002 0.044
3.7579999 -4.9520001 0.043000001
3.7520001 -4.9130001 0.044
3.7980001 -4.941 0.041999999
3.8080001 -4.921 0.041999999
3.8469999 -4.9390001 0.041999999
3.858 -4.9219999 0.041999999
3.8789999 -4.9169998 0.041000001
3.888 -4.9120002 0.041000001
3.9089999 -4.908 0.041000001
3.9449999 -4.9200001 0.039999999
3.964 -4.9120002 0.039999999
4.0149999 -4.9429998 0.039000001
4.0170002 -4.914 0.039000001
4.0359998 -4.9060001 0.039000001
4.0679998 -4.9130001 0.037999999
4.0819998 -4.914 0.037999999
4.1090002 -4.915 0.037999999
4.1370001 -4.9169998 0.037
4.1669998 -4.921 0.037
4.1859999 -4.9120002 0.035999998
4.2160001 -4.9159999 0.035999998
4.244 -4.9159999 0.035
4.256 -4.9159999 0.035
4.2800002 -4.9109998 0.035
4.3200002 -4.9260001 0.034000002
4.3449998 -4.9229999 0.034000002
4.3730001 -4.9229999 0.033
4.4000001 -4.9219999 0.033
4.4190001 -4.927 0.032000002
4.4530001 -4.934 0.030999999
4.4780002 -4.9299998 0.030999999
4.5040002 -4.928 0.030999999
4.5320001 -4.927 0.029999999
4.5640001 -4.9299998 0.029999999
4.5780001 -4.915 0.029999999
4.6399999 -4.9660001 0.028000001
4.6279998 -4.9219999 0.028999999
4.6739998 -4.9390001 0.027000001
4.698 -4.9330001 0.027000001
4.7399998 -4.9460001 0.026000001
4.7459998 -4.921 0.026000001
4.789 -4.934 0.025
4.8010001 -4.9310002 0.025
4.8460002 -4.9460001 0.024
4.8499999 -4.9190001 0.025
4.915 -4.954 0.023
4.9330001 -4.941 0.023
4.973 -4.9489999 0.022
4.9910002 -4.9359999 0.022
5.0310001 -4.9439998 0.021
5.0450001 -4.9419999 0.021
5.073 -4.9390001 0.02
5.1069999 -4.941 0.018999999
5.1339998 -4.9359999 0.018999999
5.1799998 -4.9489999 0.017999999
5.1900001 -4.927 0.017999999
5.243 -4.9460001 0.017000001
5.2480001 -4.9349999 0.017000001
5.2930002 -4.9460001 0.016000001
5.3119998 -4.9320002 0.016000001
5.3569999 -4.9419999 0.015
5.3839998 -4.9359999 0.014
5.4159999 -4.934 0.014
5.434 -4.9190001 0.014
5.4749999 -4.9400001 0.012
5.4949999 -4.927 0.012
5.553 -4.948 0.011
5.5879998 -4.948 0.0099999998
5.618 -4.9419999 0.0099999998
5.6620002 -4.9489999 0.0089999996
5.6890001 -4.9419999 0.0080000004
5.717 -4.9499998 0.0080000004
5.7600002 -4.9549999 0.0070000002
5.803 -4.96 0.0060000001
5.8369999 -4.9580002 0.0049999999
5.8660002 -4.9510002 0.0049999999
5.9000001 -4.948 0.0040000002
5.9520001 -4.96 0.003
5.9660001 -4.9559999 0.003
6.0029998 -4.9549999 0.0020000001
6.0440001 -4.9559999 0.001
6.0700002 -4.9460001 0.001
6.1139998 -4.9489999 -0
6.1479998 -4.9450002 -0.001
6.2030001 -4.9569998 -0.0020000001
6.2140002 -4.9489999 -0.0020000001
6.2459998 -4.9429998 -0.003
6.3000002 -4.9530001 -0.0040000002
6.3340001 -4.948 -0.0049999999
6.3779998 -4.9499998 -0.0060000001
6.4250002 -4.954 -0.0070000002
6.4619999 -4.9499998 -0.0080000004
6.4819999 -4.9489999 -0.0080000004
6.526 -4.9510002 -0.0089999996
6.566 -4.948 -0.0099999998
6.6090002 -4.948 -0.011
6.6469998 -4.9439998 -0.011
6.691 -4.9439998 -0.012
6.7360001 -4.9439998 -0.013
6.7810001 -4.961 -0.014
6.829 -4.9629998 -0.015
6.8610001 -4.9530001 -0.016000001
6.914 -4.9580002 -0.017000001
6.9359999 -4.941 -0.017000001
6.9920001 -4.948 -0.018999999
7.0349998 -4.9450002 -0.02
7.0710001 -4.954 -0.02
7.1279998 -4.96 -0.022
7.165 -4.9520001 -0.022
7.197 -4.941 -0.023
7.2649999 -4.954 -0.025
7.3169999 -4.9559999 -0.026000001
7.3579998 -4.9489999 -0.026000001
7.3940001 -4.9569998 -0.027000001
7.4390001 -4.9530001 -0.028000001
7.4949999 -4.9559999 -0.029999999
7.5539999 -4.961 -0.030999999
7.5960002 -4.9549999 -0.032000002
7.6399999 -4.9489999 -0.033
7.698 -4.9520001 -0.034000002
7.756 -4.9720001 -0.035999998
7.8130002 -4.974 -0.037
7.8520002 -4.9640002 -0.037
7.9060001 -4.9640002 -0.039000001
7.9629998 -4.9640002 -0.039999999
8.0120001 -4.96 -0.041000001
8.0570002 -4.9520001 -0.041999999
8.1239996 -4.9759998 -0.044
8.1610003 -4.9629998 -0.044
8.2069998 -4.9559999 -0.045000002
8.2720003 -4.96 -0.046999998
8.3409996 -4.9650002 -0.048
8.4049997 -4.967 -0.050000001
8.4569998 -4.9619999 -0.050999999
8.5100002 -4.9749999 -0.052000001
8.5679998 -4.973 -0.054000001
8.6269999 -4.9710002 -0.055
8.6969995 -4.9749999 -0.057
8.7609997 -4.9749999 -0.057999998
8.8219995 -4.973 -0.059
8.8660002 -4.96 -0.059999999
8.9239998 -4.9749999 -0.061999999
8.9870005 -4.973 -0.063000001
9.0500002 -4.9699998 -0.064000003
9.1129999 -4.967 -0.066
9.1800003 -4.9660001 -0.067000002
9.25 -4.967 -0.068999998
9.3079996 -4.96 -0.07
9.3579998 -4.9679999 -0.071999997
9.4359999 -4.9710002 -0.072999999
9.4940004 -4.9629998 -0.075000003
9.5570002 -4.9580002 -0.075999998
9.6420002 -4.9640002 -0.078000002
9.717 -4.9629998 -0.079999998
9.7819996 -4.9580002 -0.081
9.8649998 -4.98 -0.082999997
9.9329996 -4.9749999 -0.085000001
10.016 -4.9770002 -0.086999997
10.089 -4.974 -0.089000002
10.157 -4.9679999 -0.090000004
10.259 -4.9770002 -0.093000002
10.309 -4.961 -0.093999997
10.375 -4.9530001 -0.094999999
10.45 -4.9679999 -0.097000003
10.536 -4.9689999 -0.098999999
10.597 -4.9569998 -0.1
10.672 -4.9510002 -0.102
10.758 -4.9499998 -0.104
10.858 -4.954 -0.106
10.944 -4.9520001 -0.109
11.029 -4.9689999 -0.111
11.108 -4.9629998 -0.113
11.212 -4.9660001 -0.115
11.304 -4.9650002 -0.117
11.386 -4.9580002 -0.119
11.464 -4.9489999 -0.121
11.556 -4.9460001 -0.123
11.66 -4.9679999 -0.126
11.757 -4.9660001 -0.12800001
11.864 -4.967 -0.131
11.967 -4.9660001 -0.133
12.069 -4.9629998 -0.13600001
12.161 -4.9559999 -0.138
12.26 -4.9520001 -0.14
12.359 -4.9689999 -0.14300001
12.473 -4.9689999 -0.145
12.587 -4.9679999 -0.148
12.699 -4.967 -0.15099999
12.814 -4.9650002 -0.154
12.917 -4.9580002 -0.156
13.019 -4.9499998 -0.15800001
12.661 -4.7919998 -0.148
12.626 -4.7329998 -0.147
12.594 -4.6760001 -0.146
12.623 -4.6420002 -0.146
12.602 -4.5900002 -0.145
12.632 -4.5560002 -0.145
12.64 -4.5139999 -0.145
12.67 -4.5019999 -0.146
12.695 -4.4660001 -0.146
12.747 -4.4390001 -0.147
14.442 -4.9749999 -0.19400001
14.56 -4.9640002 -0.19599999
14.712 -4.9650002 -0.2
14.847 -4.9580002 -0.20299999
14.994 -4.98 -0.207
15.137 -4.9749999 -0.211
15.316 -4.98 -0.215
15.472 -4.9770002 -0.219
15.612 -4.9679999 -0.222
15.784 -4.9679999 -0.227
15.923 -4.9559999 -0.23
16.113001 -4.987 -0.235
16.277 -4.9819999 -0.23899999
16.476999 -4.9860001 -0.244
16.642 -4.9790001 -0.248
16.749001 -4.954 -0.25099999
16.853001 -4.927 -0.25299999
17.021999 -4.9180002 -0.257
17.184 -4.9349999 -0.26100001
17.555 -4.9819999 -0.271
17.756001 -4.9780002 -0.27599999
17.987 -4.9819999 -0.28200001
18.201 -4.9790001 -0.287
18.393 -4.9689999 -0.292
18.603001 -4.9629998 -0.29699999
18.834999 -4.993 -0.303
19.101999 -4.9990001 -0.31
19.308001 -4.9879999 -0.315
19.539 -4.9819999 -0.32100001
19.808001 -4.9840002 -0.32800001
20.035 -4.974 -0.33399999
20.290001 -4.9689999 -0.34
20.544001 -4.9970002 -0.347
20.827999 -4.9970002 -0.354
21.122 -4.9970002 -0.361
21.395 -4.9899998 -0.368
21.688999 -4.9860001 -0.37599999
21.969999 -4.9780002 -0.38299999
22.288 -4.9759998 -0.391
22.593 -5.007 -0.39899999
22.927 -5.0050001 -0.40700001
23.240999 -4.9970002 -0.41499999
23.513 -4.9780002 -0.42199999
23.75 -4.9499998 -0.428
24.059 -4.9349999 -0.43599999
24.115999 -4.868 -0.43700001
24.302 -4.8249998 -0.44100001
24.613001 -4.8470001 -0.449
24.955999 -4.8330002 -0.458
37.056 -7.0419998 -0.77899998
37.042999 -6.9190001 -0.778
29.639999 -5.4450002 -0.58099997
29.634001 -5.348 -0.58099997
29.643999 -5.2540002 -0.57999998
29.625 -5.2020001 -0.57999998
29.625 -5.1069999 -0.579
29.614 -5.0089998 -0.57800001
29.577999 -4.9070001 -0.57700002
29.584999 -4.8130002 -0.57700002
29.580999 -4.717 -0.57599998
29.591 -4.6230001 -0.57599998
29.782 -4.605 -0.58099997
30.485001 -4.6149998 -0.59899998
31.045 -4.5999999 -0.61400002
31.695999 -4.5939999 -0.63
32.294998 -4.5770001 -0.64600003
32.995998 -4.5700002 -0.66399997
33.689999 -4.5580001 -0.68199998
34.481998 -4.6090002 -0.70200002
35.214001 -4.5939999 -0.72100002
35.990002 -4.5799999 -0.741
36.804001 -4.5650001 -0.76200002
37.702999 -4.5560002 -0.78600001
38.625 -4.5430002 -0.80900002
39.666 -4.539 -0.83600003
40.692001 -4.5910001 -0.86299998
41.726002 -4.5739999 -0.88999999
42.813999 -4.5570002 -0.91799998
43.956001 -4.5380001 -0.94800001
45.207001 -4.5229998 -0.98000002
46.084999 -4.4640002 -1.003
47.361 -4.4369998 -1.036
48.164001 -4.4349999 -1.057
50.966 -4.5300002 -1.13
51.741001 -4.4349999 -1.15
