# .PCD v0.7 - Point Cloud Data file format
VERSION 0.7
FIELDS x y z
SIZE 4 4 4
TYPE F F F
COUNT 1 1 1
WIDTH 1808
HEIGHT 1
VIEWPOINT 0 0 0 1 0 0 0
POINTS 1808
DATA ascii
9.5600004 8.427 -1.431
9.54 8.4619999 -1.432
9.5059996 8.4849997 -1.4299999
9.4820004 8.4910002 -1.429
9.4610004 8.526 -1.4299999
9.4390001 8.5600004 -1.4299999
9.4259996 8.6029997 -1.433
9.4049997 8.6370001 -1.434
9.3789997 8.6680002 -1.434
9.3509998 8.6960001 -1.434
9.3660002 8.7379999 -1.439
9.3339996 8.7629995 -1.438
9.2980003 8.7849998 -1.437
9.2650003 8.8079996 -1.436
9.2729998 8.8710003 -1.442
9.2419996 8.8979998 -1.442
9.1949997 8.9090004 -1.438
9.1669998 8.9099998 -1.436
9.1409998 8.9399996 -1.436
9.0970001 8.9530001 -1.433
9.0469999 8.9610004 -1.429
9.0080004 8.9779997 -1.427
8.974 9.0010004 -1.426
8.9429998 9.026 -1.426
8.9429998 9.0539999 -1.428
8.8780003 9.0450001 -1.4220001
8.816 9.0389996 -1.416
8.802 9.0810003 -1.418
8.8050003 9.1409998 -1.424
8.7510004 9.1429996 -1.42
8.7159996 9.1639996 -1.418
8.6809998 9.1850004 -1.4170001
8.6450005 9.1759996 -1.413
8.618 9.2040005 -1.413
8.585 9.2270002 -1.413
8.5620003 9.2609997 -1.414
8.5319996 9.2869997 -1.414
8.507 9.3179998 -1.414
8.4650002 9.3310003 -1.4119999
8.4469995 9.3400002 -1.411
8.4230003 9.3719997 -1.4119999
8.3870001 9.3909998 -1.411
8.3610001 9.4219999 -1.4119999
8.3290005 9.4449997 -1.411
8.2989998 9.4720001 -1.411
8.2690001 9.4980001 -1.411
8.2489996 9.5050001 -1.41
8.2150002 9.526 -1.41
8.1759996 9.5410004 -1.408
8.1470003 9.5679998 -1.408
8.1120005 9.5880003 -1.4069999
8.0760002 9.6059999 -1.406
8.0439997 9.6300001 -1.406
7.9970002 9.6040001 -1.399
7.9759998 9.6400003 -1.401
7.9510002 9.6709995 -1.402
7.9130001 9.6870003 -1.4
7.8800001 9.7080002 -1.4
7.8499999 9.7349997 -1.4
7.816 9.7550001 -1.399
7.8140001 9.7840004 -1.402
7.7750001 9.7980003 -1.4
7.7329998 9.8079996 -1.398
7.6919999 9.8199997 -1.396
7.6529999 9.8330002 -1.3940001
7.631 9.868 -1.396
7.5869999 9.8760004 -1.3940001
7.5500002 9.8920002 -1.392
7.5380001 9.9090004 -1.393
7.5079999 9.934 -1.393
7.474 9.9530001 -1.393
7.4390001 9.9709997 -1.392
7.4000001 9.9849997 -1.39
7.3699999 10.01 -1.391
7.3239999 10.014 -1.388
7.3109999 10.028 -1.388
7.277 10.048 -1.388
7.2389998 10.061 -1.386
7.2090001 10.087 -1.387
7.171 10.1 -1.385
7.1339998 10.116 -1.3839999
7.1090002 10.148 -1.386
7.092 10.158 -1.385
7.0650001 10.187 -1.386
7.0349998 10.212 -1.387
7.0019999 10.232 -1.387
6.9569998 10.236 -1.3839999
6.9060001 10.23 -1.3789999
6.8959999 10.285 -1.3839999
6.8730001 10.286 -1.383
6.8590002 10.334 -1.387
6.8270001 10.357 -1.387
6.8060002 10.395 -1.39
6.7579999 10.393 -1.386
6.7129998 10.396 -1.383
6.665 10.393 -1.38
6.6279998 10.408 -1.3789999
6.5970001 10.395 -1.375
6.5669999 10.419 -1.376
6.5300002 10.432 -1.375
6.5019999 10.461 -1.376
6.4590001 10.465 -1.374
6.4219999 10.478 -1.373
6.3860002 10.493 -1.372
6.3610001 10.49 -1.37
6.323 10.501 -1.369
6.29 10.521 -1.369
6.25 10.531 -1.367
6.2020001 10.525 -1.363
6.1760001 10.556 -1.365
6.1339998 10.56 -1.363
6.1160002 10.568 -1.362
6.0809999 10.584 -1.362
6.0430002 10.594 -1.3609999
6.0139999 10.62 -1.362
5.9749999 10.63 -1.36
5.9390001 10.644 -1.36
5.9070001 10.666 -1.36
5.8839998 10.663 -1.358
5.8600001 10.699 -1.3609999
5.8179998 10.701 -1.359
5.777 10.705 -1.357
5.7399998 10.718 -1.3559999
5.6960001 10.717 -1.353
5.6550002 10.721 -1.351
5.6230001 10.742 -1.352
5.598 10.735 -1.349
5.5609999 10.747 -1.348
5.5180001 10.745 -1.346
5.4829998 10.761 -1.345
5.4450002 10.771 -1.344
5.4169998 10.799 -1.346
5.3740001 10.798 -1.3430001
5.3600001 10.812 -1.344
5.3200002 10.816 -1.342
5.2870002 10.834 -1.3430001
5.2389998 10.824 -1.339
5.211 10.851 -1.34
5.1789999 10.873 -1.341
5.1370001 10.873 -1.339
5.1129999 10.867 -1.337
5.0869999 10.899 -1.339
5.0430002 10.895 -1.336
5.0110002 10.915 -1.337
4.98 10.939 -1.3380001
4.9419999 10.946 -1.337
4.9039998 10.952 -1.336
4.8870001 10.962 -1.336
4.836 10.939 -1.33
4.8130002 10.98 -1.334
4.7789998 10.996 -1.334
4.7399998 11.002 -1.3329999
4.7080002 11.023 -1.334
4.6729999 11.035 -1.334
4.632 11.035 -1.331
4.612 11.037 -1.331
4.572 11.039 -1.329
4.5310001 11.037 -1.327
4.4899998 11.036 -1.325
4.4569998 11.056 -1.325
4.408 11.033 -1.3200001
4.375 11.05 -1.321
4.3470001 11.031 -1.317
4.3109999 11.041 -1.317
4.2729998 11.046 -1.3150001
4.2319999 11.044 -1.313
4.1890001 11.035 -1.3099999
4.1550002 11.05 -1.311
4.1170001 11.054 -1.309
4.0960002 11.051 -1.308
4.053 11.041 -1.3049999
4 11.004 -1.298
3.971 11.031 -1.3
3.938 11.049 -1.301
3.8989999 11.049 -1.299
3.8599999 11.049 -1.298
3.8210001 11.05 -1.296
3.8 11.045 -1.295
3.7609999 11.044 -1.293
3.7219999 11.042 -1.291
3.6830001 11.043 -1.29
3.645 11.045 -1.288
3.6059999 11.041 -1.286
3.573 11.058 -1.2869999
3.549 11.045 -1.285
3.513 11.052 -1.284
3.473 11.046 -1.2819999
3.4349999 11.048 -1.28
3.3970001 11.045 -1.279
3.3599999 11.048 -1.278
3.322 11.049 -1.276
3.303 11.049 -1.276
3.266 11.051 -1.275
3.2279999 11.052 -1.273
3.1889999 11.045 -1.271
3.152 11.047 -1.27
3.112 11.04 -1.268
3.075 11.042 -1.267
3.0539999 11.033 -1.265
3.017 11.035 -1.2640001
2.9809999 11.039 -1.263
2.9449999 11.043 -1.262
2.9089999 11.046 -1.262
2.872 11.047 -1.261
2.835 11.047 -1.2589999
2.8139999 11.038 -1.258
2.777 11.037 -1.256
2.7420001 11.044 -1.256
2.7060001 11.046 -1.255
2.6689999 11.049 -1.255
2.6329999 11.05 -1.2539999
2.5969999 11.052 -1.253
2.5599999 11.051 -1.252
2.5409999 11.047 -1.251
2.5020001 11.039 -1.249
2.4690001 11.053 -1.249
2.4319999 11.053 -1.248
2.3959999 11.051 -1.247
2.3610001 11.058 -1.247
2.3239999 11.058 -1.2460001
2.3069999 11.06 -1.2460001
2.2709999 11.061 -1.245
2.2349999 11.064 -1.244
2.1989999 11.065 -1.244
2.164 11.072 -1.244
2.131 11.087 -1.245
2.096 11.089 -1.244
2.0810001 11.106 -1.2460001
2.0469999 11.121 -1.247
2.0150001 11.143 -1.249
1.979 11.145 -1.249
1.946 11.159 -1.25
1.9119999 11.173 -1.251
1.874 11.159 -1.248
1.84 11.173 -1.249
1.825 11.189 -1.251
1.796 11.234 -1.256
1.751 11.179 -1.248
1.7079999 11.134 -1.2410001
1.675 11.153 -1.243
1.642 11.172 -1.245
1.6059999 11.173 -1.244
1.586 11.16 -1.242
1.552 11.17 -1.243
1.517 11.171 -1.243
1.479 11.158 -1.24
1.448 11.19 -1.244
1.409 11.165 -1.24
1.377 11.195 -1.243
1.339 11.182 -1.2410001
1.322 11.182 -1.2410001
1.288 11.198 -1.242
1.253 11.202 -1.242
1.216 11.192 -1.2410001
1.183 11.214 -1.243
1.145 11.192 -1.24
1.108 11.183 -1.238
1.091 11.185 -1.238
1.059 11.218 -1.242
1.018 11.168 -1.235
0.986 11.203 -1.239
0.95300001 11.225 -1.242
0.91600001 11.211 -1.239
0.87900001 11.194 -1.237
0.86199999 11.207 -1.238
0.82499999 11.186 -1.235
0.79299998 11.22 -1.239
0.75700003 11.213 -1.238
0.72100002 11.205 -1.237
0.68599999 11.213 -1.238
0.65100002 11.215 -1.238
0.616 11.227 -1.239
0.597 11.202 -1.2359999
0.56199998 11.2 -1.235
0.52700001 11.206 -1.2359999
0.491 11.192 -1.234
0.456 11.199 -1.234
0.421 11.214 -1.2359999
0.38600001 11.227 -1.238
0.37 11.274 -1.243
0.333 11.223 -1.237
0.29800001 11.224 -1.237
0.26300001 11.227 -1.237
0.226 11.182 -1.2309999
0.192 11.211 -1.235
0.15700001 11.207 -1.234
0.139 11.229 -1.237
0.103 11.188 -1.232
0.068999998 11.22 -1.2359999
0.033 11.204 -1.234
-0.0020000001 11.22 -1.2359999
-0.037 11.214 -1.235
-0.071999997 11.236 -1.238
-0.090000004 11.222 -1.2359999
-0.125 11.233 -1.238
-0.161 11.219 -1.2359999
-0.19599999 11.217 -1.2359999
-0.23100001 11.23 -1.237
-0.26699999 11.241 -1.239
-0.30199999 11.248 -1.24
-0.338 11.259 -1.2410001
-0.35499999 11.246 -1.24
-0.38999999 11.225 -1.237
-0.42500001 11.214 -1.2359999
-0.46000001 11.209 -1.2359999
-0.49399999 11.178 -1.232
-0.53100002 11.21 -1.2359999
-0.56599998 11.208 -1.2359999
-0.58399999 11.213 -1.237
-0.61799997 11.201 -1.2359999
-0.65600002 11.235 -1.24
-0.69300002 11.262 -1.244
-0.72500002 11.221 -1.239
-0.75999999 11.208 -1.238
-0.79699999 11.232 -1.2410001
-0.81300002 11.203 -1.237
-0.84799999 11.198 -1.237
-0.88700002 11.247 -1.244
-0.92299998 11.252 -1.245
-0.95700002 11.229 -1.242
-0.99000001 11.204 -1.239
-1.028 11.229 -1.243
-1.062 11.214 -1.2410001
-1.0779999 11.192 -1.239
-1.113 11.195 -1.24
-1.15 11.211 -1.242
-1.186 11.213 -1.243
-1.222 11.213 -1.243
-1.258 11.217 -1.244
-1.2920001 11.2 -1.243
-1.3099999 11.199 -1.243
-1.345 11.201 -1.244
-1.381 11.201 -1.244
-1.4170001 11.202 -1.245
-1.452 11.2 -1.245
-1.492 11.231 -1.25
-1.523 11.19 -1.245
-1.546 11.231 -1.251
-1.577 11.197 -1.247
-1.612 11.19 -1.247
-1.6440001 11.161 -1.244
-1.682 11.174 -1.2460001
-1.724 11.213 -1.252
-1.757 11.196 -1.25
-1.772 11.178 -1.248
-1.812 11.2 -1.252
-1.8430001 11.172 -1.249
-1.882 11.188 -1.252
-1.918 11.188 -1.253
-1.959 11.213 -1.257
-1.988 11.174 -1.252
-2.026 11.183 -1.2539999
-2.0439999 11.186 -1.255
-2.082 11.195 -1.257
-2.119 11.196 -1.258
-2.1570001 11.203 -1.26
-2.1889999 11.181 -1.258
-2.2219999 11.164 -1.257
-2.2579999 11.161 -1.257
-2.28 11.177 -1.26
-2.323 11.21 -1.265
-2.3570001 11.199 -1.2640001
-2.3859999 11.16 -1.26
-2.428 11.186 -1.265
-2.461 11.167 -1.263
-2.497 11.167 -1.2640001
-2.5179999 11.174 -1.266
-2.5539999 11.17 -1.266
-2.582 11.135 -1.263
-2.622 11.148 -1.266
-2.6559999 11.136 -1.265
-2.694 11.137 -1.266
-2.7279999 11.127 -1.266
-2.763 11.116 -1.266
-2.78 11.112 -1.266
-2.8180001 11.116 -1.268
-2.8499999 11.096 -1.266
-2.8840001 11.081 -1.265
-2.924 11.091 -1.268
-2.961 11.092 -1.2690001
-2.997 11.088 -1.27
-3.0190001 11.099 -1.272
-3.0569999 11.101 -1.273
-3.095 11.104 -1.275
-3.1300001 11.093 -1.275
-3.168 11.094 -1.276
-3.204 11.088 -1.277
-3.243 11.093 -1.279
-3.277 11.081 -1.279
-3.296 11.08 -1.279
-3.335 11.083 -1.281
-3.3699999 11.074 -1.281
-3.4059999 11.069 -1.2819999
-3.444 11.068 -1.283
-3.4809999 11.062 -1.284
-3.52 11.067 -1.286
-3.5409999 11.072 -1.288
-3.5780001 11.069 -1.289
-3.6170001 11.071 -1.29
-3.658 11.076 -1.293
-3.6919999 11.063 -1.2920001
-3.7320001 11.068 -1.295
-3.7639999 11.049 -1.294
-3.789 11.065 -1.2970001
-3.8310001 11.074 -1.3
-3.869 11.07 -1.301
-3.9089999 11.074 -1.303
-3.9449999 11.064 -1.303
-3.9860001 11.068 -1.3049999
-4.0219998 11.059 -1.306
-4.0619998 11.063 -1.308
-4.0830002 11.064 -1.309
-4.1240001 11.068 -1.311
-4.165 11.072 -1.314
-4.2030001 11.068 -1.3150001
-4.244 11.072 -1.317
-4.2800002 11.062 -1.318
-4.3189998 11.059 -1.319
-4.3429999 11.069 -1.322
-4.3839998 11.072 -1.324
-4.4219999 11.066 -1.325
-4.46 11.061 -1.326
-4.5050001 11.071 -1.329
-4.546 11.071 -1.331
-4.5890002 11.079 -1.335
-4.6279998 11.074 -1.336
-4.6479998 11.072 -1.337
-4.6890001 11.074 -1.339
-4.7290001 11.07 -1.34
-4.7690001 11.068 -1.342
-4.8109999 11.069 -1.344
-4.8569999 11.079 -1.348
-4.8889999 11.059 -1.347
-4.914 11.067 -1.349
-4.96 11.077 -1.353
-5 11.074 -1.355
-5.0409999 11.073 -1.357
-5.0819998 11.07 -1.359
-5.1300001 11.082 -1.363
-5.1659999 11.068 -1.363
-5.21 11.073 -1.3660001
-5.2340002 11.078 -1.368
-5.2740002 11.074 -1.37
-5.3169999 11.073 -1.372
-5.3590002 11.073 -1.374
-5.402 11.072 -1.376
-5.447 11.076 -1.3789999
-5.4910002 11.077 -1.382
-5.513 11.079 -1.383
-5.5539999 11.074 -1.385
-5.599 11.076 -1.388
-5.6399999 11.071 -1.39
-5.6830001 11.069 -1.392
-5.7329998 11.081 -1.396
-5.7750001 11.077 -1.398
-5.7950001 11.073 -1.399
-5.8390002 11.072 -1.402
-5.8839998 11.073 -1.405
-5.9250002 11.065 -1.406
-5.9660001 11.059 -1.408
-6.0079999 11.054 -1.41
-6.0500002 11.049 -1.4119999
-6.0780001 11.058 -1.415
-6.1059999 11.027 -1.413
-6.1440001 11.013 -1.414
-6.1849999 11.006 -1.415
-6.2189999 10.985 -1.415
-6.2589998 10.975 -1.4170001
-6.2979999 10.964 -1.418
-6.335 10.948 -1.418
-6.3460002 10.928 -1.4170001
-6.395 10.933 -1.421
-6.428 10.91 -1.42
-6.4720001 10.907 -1.423
-6.5120001 10.897 -1.424
-6.552 10.884 -1.426
-6.5960002 10.881 -1.428
-6.618 10.879 -1.429
-6.651 10.856 -1.429
-6.6830001 10.832 -1.429
-6.7270002 10.826 -1.431
-6.7729998 10.825 -1.434
-6.8070002 10.804 -1.434
-6.8460002 10.791 -1.4349999
-6.882 10.773 -1.436
-6.914 10.785 -1.439
-6.947 10.762 -1.439
-6.9970002 10.765 -1.443
-7.0289998 10.74 -1.442
-7.0739999 10.736 -1.4450001
-7.1199999 10.732 -1.448
-7.1589999 10.717 -1.449
-7.1869998 10.723 -1.452
-7.217 10.695 -1.451
-7.2410002 10.658 -1.449
-7.283 10.648 -1.451
-7.3169999 10.625 -1.451
-7.355 10.608 -1.452
-7.401 10.605 -1.455
-7.421 10.598 -1.456
-7.46 10.583 -1.457
-7.506 10.577 -1.46
-7.552 10.571 -1.462
-7.592 10.557 -1.464
-7.6279998 10.537 -1.464
-7.6630001 10.516 -1.465
-7.7010002 10.498 -1.466
-7.7249999 10.497 -1.4680001
-7.7620001 10.478 -1.4680001
-7.8140001 10.479 -1.473
-7.8449998 10.452 -1.472
-7.8850002 10.437 -1.474
-7.9190001 10.414 -1.474
-7.9710002 10.414 -1.478
-8 10.418 -1.4809999
-8.0530005 10.419 -1.485
-8.0979996 10.409 -1.487
-8.151 10.411 -1.492
-8.1890001 10.391 -1.493
-8.2089996 10.35 -1.49
-8.191 10.26 -1.48
-8.1079998 10.123 -1.46
-8.1890001 10.16 -1.47
-8.2790003 10.205 -1.4809999
-8.2790003 10.14 -1.475
-8.316 10.12 -1.476
-8.3330002 10.076 -1.473
-8.4309998 10.131 -1.4859999
-8.4560003 10.095 -1.485
-8.4499998 10.056 -1.4809999
-8.5290003 10.085 -1.49
-8.573 10.074 -1.493
-8.5939999 10.035 -1.4910001
-8.618 9.9980001 -1.489
-8.6630001 9.9860001 -1.492
-8.7030001 9.9700003 -1.493
-8.7250004 9.9630003 -1.495
-8.7600002 9.9399996 -1.495
-8.7889996 9.9099998 -1.495
-8.8269997 9.8900003 -1.4960001
-8.8549995 9.8590002 -1.4960001
-8.8940001 9.8400002 -1.497
-8.9329996 9.8210001 -1.499
-8.9519997 9.8109999 -1.499
-8.9870005 9.7869997 -1.5
-9.0349998 9.7779999 -1.503
-9.0769997 9.7609997 -1.506
-9.0950003 9.7189999 -1.503
-9.1339998 9.6999998 -1.505
-9.1780005 9.6850004 -1.507
-9.2030001 9.651 -1.506
-9.2200003 9.6389999 -1.507
-9.2709999 9.6309996 -1.511
-9.3129997 9.6140003 -1.513
-9.3509998 9.5930004 -1.5140001
-9.3839998 9.566 -1.515
-9.4259996 9.5500002 -1.517
-9.4630003 9.5270004 -1.518
-9.4750004 9.5089998 -1.518
-9.507 9.4809999 -1.518
-9.5489998 9.4639997 -1.52
-9.5889997 9.4429998 -1.522
-9.6210003 9.4160004 -1.522
-9.6549997 9.3900003 -1.523
-9.6969995 9.3719997 -1.526
-9.7220001 9.3660002 -1.527
-9.7510004 9.3360004 -1.527
-9.7819996 9.3059998 -1.528
-9.8199997 9.2840004 -1.529
-9.875 9.2770004 -1.534
-9.9040003 9.2460003 -1.534
-9.9370003 9.2189999 -1.534
-9.9820004 9.2030001 -1.5369999
-10.004 9.1940002 -1.538
-10.03 9.1599998 -1.538
-10.072 9.1400003 -1.54
-10.106 9.1140003 -1.541
-10.142 9.0889997 -1.543
-10.181 9.066 -1.544
-10.226 9.0480003 -1.5470001
-10.245 9.0360003 -1.548
-10.273 9.0039997 -1.548
-10.316 8.9849997 -1.55
-10.356 8.9630003 -1.552
-10.389 8.934 -1.553
-10.438 8.9189997 -1.557
-10.49 8.9069996 -1.561
-10.531 8.9139996 -1.5650001
-10.562 8.8830004 -1.566
-10.566 8.8299999 -1.562
-10.577 8.7819996 -1.559
-10.594 8.7399998 -1.557
-10.624 8.7089996 -1.558
-10.657 8.6809998 -1.559
-10.676 8.6680002 -1.5599999
-10.711 8.6409998 -1.561
-10.733 8.6029997 -1.5599999
-10.788 8.592 -1.5650001
-10.81 8.5539999 -1.564
-10.856 8.5349998 -1.567
-10.879 8.4980001 -1.566
-10.917 8.4729996 -1.568
-10.938 8.4619999 -1.569
-10.971 8.4320002 -1.5700001
-10.986 8.3889999 -1.569
-11.022 8.3620005 -1.5700001
-11.064 8.3389997 -1.573
-11.1 8.3109999 -1.574
-11.135 8.2840004 -1.576
-11.153 8.2700005 -1.577
-11.181 8.2360001 -1.577
-11.171 8.1750002 -1.571
-11.16 8.1129999 -1.5650001
-11.213 8.0970001 -1.5700001
-11.29 8.099 -1.5779999
-11.339 8.0810003 -1.582
-11.387 8.0620003 -1.585
-11.406 8.0480003 -1.586
-11.451 8.026 -1.589
-11.473 7.9879999 -1.589
-11.503 7.9549999 -1.589
-11.551 7.9349999 -1.5930001
-11.603 7.9169998 -1.597
-11.635 7.8850002 -1.598
-11.655 7.8730001 -1.6
-11.677 7.8340001 -1.599
-11.71 7.803 -1.6
-11.762 7.7839999 -1.605
-11.795 7.7529998 -1.6059999
-11.806 7.7069998 -1.604
-11.837 7.6739998 -1.605
-11.86 7.6630001 -1.607
-11.891 7.6300001 -1.608
-11.945 7.612 -1.612
-11.977 7.5799999 -1.614
-12.023 7.5560002 -1.617
-12.062 7.5279999 -1.619
-12.067 7.4780002 -1.6160001
-12.078 7.4590001 -1.6160001
-12.13 7.4390001 -1.6210001
-12.193 7.4250002 -1.627
-12.228 7.3930001 -1.628
-12.273 7.368 -1.632
-12.34 7.3559999 -1.638
-12.399 7.3390002 -1.6440001
-12.418 7.323 -1.645
-12.425 7.2750001 -1.642
-12.474 7.2509999 -1.646
-12.498 7.2129998 -1.646
-12.524 7.1750002 -1.647
-12.581 7.1560001 -1.652
-12.61 7.1199999 -1.653
-12.648 7.0890002 -1.655
-12.663 7.0710001 -1.656
-12.678 7.0279999 -1.655
-12.702 6.9889998 -1.655
-12.724 6.9489999 -1.655
-12.775 6.9250002 -1.659
-12.811 6.8920002 -1.661
-12.838 6.855 -1.6619999
-12.847 6.8340001 -1.6619999
-12.864 6.7909999 -1.661
-12.9 6.7579999 -1.663
-12.937 6.7259998 -1.666
-12.97 6.6919999 -1.6670001
-12.982 6.6469998 -1.666
-13.014 6.6110001 -1.668
-13.05 6.5780001 -1.67
-13.096 6.5760002 -1.675
-13.122 6.5370002 -1.676
-13.162 6.506 -1.679
-13.197 6.4710002 -1.681
-13.224 6.4330001 -1.682
-13.264 6.401 -1.684
-13.302 6.368 -1.687
-13.324 6.3530002 -1.689
-13.358 6.3179998 -1.691
-13.414 6.2930002 -1.696
-13.434 6.2509999 -1.696
-13.477 6.2189999 -1.699
-13.485 6.1719999 -1.698
-13.479 6.1430001 -1.6950001
-13.498 6.1009998 -1.6950001
-13.543 6.0700002 -1.699
-13.571 6.0310001 -1.7
-13.617 6.0009999 -1.704
-13.646 5.9629998 -1.705
-13.691 5.9310002 -1.709
-13.716 5.8909998 -1.71
-13.782 5.8940001 -1.7180001
-13.863 5.8769999 -1.726
-13.881 5.8330002 -1.726
-13.833 5.7620001 -1.717
-13.84 5.7140002 -1.716
-13.818 5.6539998 -1.71
-13.86 5.6199999 -1.714
-13.901 5.612 -1.7180001
-13.937 5.5760002 -1.721
-13.975 5.54 -1.723
-13.998 5.4980001 -1.724
-14.019 5.4559999 -1.725
-14.051 5.4169998 -1.727
-14.094 5.3829999 -1.73
-14.094 5.3319998 -1.728
-14.106 5.3119998 -1.728
-14.139 5.2740002 -1.7309999
-14.172 5.2350001 -1.733
-14.144 5.1739998 -1.727
-14.213 5.1490002 -1.734
-14.268 5.118 -1.739
-14.282 5.073 -1.739
-14.301 5.0539999 -1.7410001
-14.315 5.0089998 -1.74
-14.363 4.9749999 -1.745
-14.382 4.9310002 -1.745
-14.418 4.8930001 -1.748
-14.441 4.8499999 -1.749
-14.475 4.8109999 -1.752
-14.48 4.7880001 -1.751
-14.522 4.7509999 -1.755
-14.546 4.7080002 -1.756
-14.561 4.6630001 -1.756
-14.59 4.6220002 -1.758
-14.639 4.586 -1.763
-14.655 4.5409999 -1.763
-14.69 4.5009999 -1.766
-14.752 4.4949999 -1.773
-14.797 4.4580002 -1.777
-14.814 4.4130001 -1.778
-14.805 4.3590002 -1.775
-14.903 4.3369999 -1.786
-15.031 4.3239999 -1.801
-15.185 4.3169999 -1.8200001
-15.265 4.3130002 -1.829
-15.364 4.29 -1.841
-15.483 4.2709999 -1.855
-15.565 4.2410002 -1.864
-15.574 4.191 -1.863
-15.572 4.138 -1.8609999
-15.571 4.085 -1.86
-15.574 4.0599999 -1.859
-15.608 4.0159998 -1.862
-15.59 3.9590001 -1.858
-15.6 3.9100001 -1.858
-15.624 3.8640001 -1.859
-15.626 3.812 -1.858
-15.646 3.7650001 -1.859
-15.66 3.7160001 -1.859
-15.658 3.6900001 -1.858
-15.679 3.6429999 -1.859
-15.681 3.5910001 -1.858
-15.692 3.5420001 -1.858
-15.709 3.494 -1.859
-15.714 3.444 -1.858
-15.713 3.392 -1.857
-15.724 3.368 -1.857
-15.732 3.3180001 -1.857
-15.745 3.2690001 -1.857
-15.753 3.2190001 -1.857
-15.753 3.168 -1.8559999
-15.753 3.1170001 -1.855
-15.767 3.0680001 -1.855
-15.77 3.043 -1.855
-15.781 2.993 -1.855
-15.793 2.944 -1.855
-15.798 2.8940001 -1.855
-15.809 2.845 -1.855
-15.826 2.796 -1.8559999
-15.824 2.7449999 -1.855
-15.844 2.723 -1.857
-15.847 2.6719999 -1.8559999
-15.871 2.625 -1.858
-15.891 2.5769999 -1.86
-15.887 2.5250001 -1.858
-15.911 2.477 -1.86
-15.909 2.4260001 -1.859
-15.924 2.3770001 -1.86
-15.934 2.3529999 -1.8609999
-15.951 2.3039999 -1.862
-15.966 2.2550001 -1.863
-15.988 2.207 -1.865
-15.991 2.1570001 -1.864
-16.014 2.108 -1.867
-16.021999 2.0580001 -1.867
-16.037001 2.0350001 -1.868
-16.054001 1.9859999 -1.87
-16.063999 1.936 -1.87
-16.080999 1.887 -1.872
-16.115 1.839 -1.875
-16.111 1.788 -1.874
-16 1.724 -1.859
-15.245 1.617 -1.761
-15.219 1.566 -1.757
-15.229 1.5190001 -1.758
-15.653 1.512 -1.812
-16.181 1.513 -1.8789999
-16.158001 1.459 -1.876
-15.7 1.368 -1.816
-15.111 1.268 -1.74
-15.026 1.2130001 -1.729
-14.978 1.161 -1.722
-15.004 1.1160001 -1.725
-15.031 1.071 -1.728
-15.009 1.045 -1.725
-15.026 0.99900001 -1.727
-15.078 0.95499998 -1.733
-15.162 0.91299999 -1.743
-15.153 0.86400002 -1.742
-15.146 0.81599998 -1.7410001
-15.105 0.76599997 -1.735
-15.127 0.72000003 -1.738
-15.146 0.69700003 -1.74
-15.14 0.64899999 -1.739
-15.146 0.602 -1.739
-15.727 0.57599998 -1.813
-16.046 0.53799999 -1.854
-16.042999 0.48699999 -1.854
-16.045 0.43700001 -1.854
-15.978 0.41 -1.845
-15.069 0.338 -1.728
-15.064 0.28999999 -1.728
-15.079 0.243 -1.73
-15.988 0.20900001 -1.846
-15.987 0.15899999 -1.845
-15.995 0.109 -1.846
-15.989 0.083999999 -1.846
-15.985 0.033 -1.845
-15.991 -0.017000001 -1.846
-15.987 -0.067000002 -1.845
-15.983 -0.117 -1.845
-15.99 -0.167 -1.846
-15.984 -0.21799999 -1.845
-15.991 -0.243 -1.846
-16.003 -0.29300001 -1.848
-16.018999 -0.34400001 -1.85
-16.024 -0.39399999 -1.851
-16.028999 -0.44499999 -1.852
-16.052999 -0.49599999 -1.855
-16.038 -0.546 -1.853
-16.054001 -0.597 -1.855
-16.061001 -0.62300003 -1.8559999
-16.07 -0.67299998 -1.858
-16.086 -0.72500002 -1.86
-16.086 -0.77499998 -1.86
-16.093 -0.82599998 -1.862
-16.098 -0.87699997 -1.863
-16.1 -0.92799997 -1.863
-16.09 -0.95300001 -1.862
-16.094999 -1.0039999 -1.863
-16.106001 -1.0549999 -1.865
-16.114 -1.107 -1.867
-16.120001 -1.158 -1.868
-16.138 -1.21 -1.8710001
-16.142 -1.262 -1.872
-16.132999 -1.286 -1.8710001
-16.132 -1.337 -1.8710001
-16.138 -1.3890001 -1.872
-16.141001 -1.4400001 -1.873
-16.145 -1.492 -1.874
-16.138 -1.5420001 -1.874
-16.113001 -1.591 -1.872
-16.099001 -1.615 -1.87
-15.934 -1.649 -1.85
-15.718 -1.677 -1.822
-15.566 -1.711 -1.804
-15.366 -1.738 -1.778
-15.338 -1.784 -1.776
-15.356 -1.835 -1.779
-15.367 -1.8609999 -1.781
-15.359 -1.909 -1.78
-15.336 -1.955 -1.778
-15.331 -2.003 -1.778
-15.313 -2.05 -1.777
-15.315 -2.099 -1.778
-15.3 -2.1459999 -1.777
-15.289 -2.1930001 -1.776
-15.296 -2.2190001 -1.777
-15.3 -2.2679999 -1.779
-15.291 -2.316 -1.779
-15.3 -2.3670001 -1.781
-15.296 -2.415 -1.781
-15.3 -2.4649999 -1.783
-15.296 -2.5139999 -1.783
-15.3 -2.539 -1.784
-15.284 -2.586 -1.783
-15.274 -2.6340001 -1.783
-15.262 -2.681 -1.783
-15.251 -2.7279999 -1.7819999
-15.248 -2.777 -1.783
-15.251 -2.8269999 -1.785
-15.239 -2.8499999 -1.784
-15.226 -2.8970001 -1.783
-15.229 -2.947 -1.785
-15.227 -2.997 -1.786
-15.22 -3.0450001 -1.786
-15.216 -3.0940001 -1.7869999
-15.218 -3.1440001 -1.788
-15.233 -3.197 -1.791
-15.263 -3.2279999 -1.796
-15.245 -3.2739999 -1.795
-15.184 -3.3110001 -1.788
-15.129 -3.349 -1.783
-15.134 -3.4000001 -1.785
-15.11 -3.4449999 -1.783
-15.083 -3.4890001 -1.781
-15.08 -3.513 -1.781
-15.063 -3.559 -1.78
-15.054 -3.6070001 -1.781
-15.044 -3.654 -1.781
-15.034 -3.7019999 -1.781
-15.027 -3.75 -1.7819999
-15.022 -3.799 -1.783
-15.022 -3.8239999 -1.783
-15.027 -3.8759999 -1.786
-15.032 -3.928 -1.788
-15.033 -3.9779999 -1.79
-15.034 -4.0289998 -1.791
-15.064 -4.0879998 -1.7970001
-15.06 -4.138 -1.798
-15.047 -4.1849999 -1.798
-15.058 -4.2129998 -1.801
-15.052 -4.263 -1.802
-15.035 -4.309 -1.801
-15.025 -4.3569999 -1.802
-15.002 -4.402 -1.8
-14.977 -4.4450002 -1.799
-14.962 -4.4920001 -1.799
-14.934 -4.5100002 -1.796
-14.918 -4.5560002 -1.796
-14.887 -4.598 -1.793
-14.85 -4.6370001 -1.79
-14.839 -4.6849999 -1.791
-14.811 -4.7280002 -1.789
-14.805 -4.777 -1.79
-14.841 -4.8140001 -1.796
-14.756 -4.8379998 -1.7869999
-14.73 -4.881 -1.785
-14.59 -4.8860002 -1.7690001
-14.466 -4.895 -1.7539999
-14.315 -4.8940001 -1.7359999
-14.162 -4.8920002 -1.717
-14.053 -4.8790002 -1.7029999
-13.948 -4.8920002 -1.691
-13.811 -4.8930001 -1.675
-13.702 -4.9029999 -1.6619999
-13.562 -4.901 -1.645
-13.158 -4.803 -1.592
-13.037 -4.8049998 -1.5779999
-12.899 -4.7779999 -1.5599999
-12.784 -4.7810001 -1.546
-12.672 -4.7849998 -1.533
-12.697 -4.8860002 -1.541
-12.61 -4.8979998 -1.531
-12.5 -4.901 -1.518
-12.388 -4.902 -1.505
-12.312 -4.895 -1.495
-12.192 -4.8909998 -1.4809999
-12.072 -4.8870001 -1.466
-11.988 -4.8979998 -1.457
-11.89 -4.901 -1.446
-11.805 -4.9099998 -1.436
-11.689 -4.9050002 -1.4220001
-11.588 -4.8839998 -1.409
-11.499 -4.8899999 -1.399
-11.404 -4.8920002 -1.388
-11.306 -4.8920002 -1.376
-11.225 -4.8990002 -1.367
-11.121 -4.895 -1.355
-11.058 -4.9099998 -1.348
-10.954 -4.9050002 -1.336
-10.872 -4.8889999 -1.325
-10.784 -4.8899999 -1.3150001
-10.707 -4.8959999 -1.307
-10.632 -4.9029999 -1.298
-10.55 -4.9050002 -1.289
-10.479 -4.9120002 -1.281
-10.387 -4.8889999 -1.2690001
-10.303 -4.8899999 -1.2589999
-10.227 -4.8930001 -1.251
-10.158 -4.8990002 -1.243
-10.073 -4.8979998 -1.233
-9.9840002 -4.8940001 -1.223
-9.9099998 -4.8959999 -1.215
-9.8409996 -4.901 -1.207
-9.7679996 -4.8839998 -1.198
-9.6990004 -4.888 -1.1900001
-9.6309996 -4.8909998 -1.182
-9.5819998 -4.9039998 -1.177
-9.5120001 -4.9060001 -1.17
-9.4329996 -4.9029999 -1.16
-9.3570004 -4.902 -1.152
-9.3129997 -4.8969998 -1.147
-9.2360001 -4.8940001 -1.138
-9.1730003 -4.8979998 -1.131
-9.1120005 -4.9029999 -1.124
-9.0430002 -4.902 -1.1160001
-8.9890003 -4.9089999 -1.1109999
-8.9230003 -4.9099998 -1.103
-8.8719997 -4.9000001 -1.097
-8.8079996 -4.901 -1.09
-8.7510004 -4.9060001 -1.084
-8.6899996 -4.908 -1.077
-8.6129999 -4.9000001 -1.068
-8.5539999 -4.9029999 -1.062
-8.4890003 -4.901 -1.054
-8.4359999 -4.888 -1.048
-8.3870001 -4.895 -1.043
-8.3299999 -4.8969998 -1.0369999
-8.2740002 -4.8990002 -1.031
-8.2089996 -4.8959999 -1.023
-8.1540003 -4.8979998 -1.017
-8.0959997 -4.8979998 -1.011
-8.0469999 -4.9029999 -1.006
-7.9920001 -4.8870001 -0.99900001
-7.9369998 -4.888 -0.99299997
-7.8829999 -4.8889999 -0.98699999
-7.8369999 -4.895 -0.98299998
-7.7880001 -4.8990002 -0.97799999
-7.7340002 -4.8990002 -0.972
-7.697 -4.9089999 -0.96799999
-7.651 -4.8969998 -0.963
-7.5799999 -4.8850002 -0.954
-7.5279999 -4.8860002 -0.949
-7.4879999 -4.8930001 -0.94499999
-7.4359999 -4.8930001 -0.93900001
-7.3870001 -4.8940001 -0.93400002
-7.3449998 -4.9000001 -0.93000001
-7.3099999 -4.8930001 -0.926
-7.256 -4.8899999 -0.92000002
-7.2080002 -4.8909998 -0.91500002
-7.1659999 -4.8959999 -0.91100001
-7.1230001 -4.8990002 -0.90700001
-7.0749998 -4.8990002 -0.90100002
-7.0149999 -4.8909998 -0.89499998
-6.974 -4.8779998 -0.889
-6.927 -4.8779998 -0.884
-6.8779998 -4.8759999 -0.87900001
-6.8369999 -4.8790002 -0.875
-6.802 -4.8870001 -0.87199998
-6.7579999 -4.8870001 -0.86699998
-6.7080002 -4.8839998 -0.86199999
-6.691 -4.888 -0.861
-6.6420002 -4.8839998 -0.85500002
-6.5949998 -4.881 -0.85000002
-6.5489998 -4.8800001 -0.84500003
-6.5240002 -4.8930001 -0.84399998
-6.46 -4.8769999 -0.83600003
-6.3000002 -4.7880001 -0.81300002
-6.25 -4.7820001 -0.80699998
-6.2129998 -4.7680001 -0.80299997
-6.171 -4.7670002 -0.79799998
-6.132 -4.7690001 -0.79400003
-6.0970001 -4.7719998 -0.79100001
-6.0630002 -4.776 -0.78799999
-6.0229998 -4.776 -0.78399998
-5.987 -4.7779999 -0.77999997
-5.9650002 -4.776 -0.778
-5.9130001 -4.7649999 -0.77200001
-5.881 -4.77 -0.76899999
-5.8460002 -4.7719998 -0.76599997
-5.823 -4.7839999 -0.76499999
-5.776 -4.776 -0.759
-5.7620001 -4.7950001 -0.75999999
-5.7550001 -4.8039999 -0.75999999
-5.7610002 -4.8400002 -0.76300001
-5.743 -4.8559999 -0.76300001
-5.7410002 -4.8850002 -0.76499999
-5.7080002 -4.888 -0.76200002
-5.6680002 -4.8850002 -0.75800002
-5.632 -4.8850002 -0.75400001
-5.6059999 -4.8779998 -0.75099999
-5.5710001 -4.8790002 -0.74800003
-5.5300002 -4.8740001 -0.74400002
-5.5029998 -4.881 -0.74199998
-5.4759998 -4.8870001 -0.74000001
-5.4310002 -4.8779998 -0.73500001
-5.4070001 -4.8870001 -0.73299998
-5.3839998 -4.882 -0.73000002
-5.3449998 -4.8779998 -0.72600001
-5.3109999 -4.8769999 -0.72299999
-5.2779999 -4.8779998 -0.72000003
-5.244 -4.8769999 -0.71700001
-5.2150002 -4.881 -0.71399999
-5.184 -4.8829999 -0.71200001
-5.1589999 -4.875 -0.70899999
-5.1279998 -4.8759999 -0.70599997
-5.0970001 -4.8769999 -0.70300001
-5.0669999 -4.8790002 -0.70099998
-5.033 -4.8769999 -0.69700003
-5.0110002 -4.8860002 -0.69599998
-4.9749999 -4.882 -0.69199997
-4.9499998 -4.888 -0.69099998
-4.9250002 -4.8790002 -0.68800002
-4.8920002 -4.8769999 -0.68400002
-4.868 -4.8839998 -0.68300003
-4.8369999 -4.8839998 -0.68000001
-4.8060002 -4.8829999 -0.67699999
-4.7810001 -4.888 -0.67500001
-4.7420001 -4.8790002 -0.671
-4.7189999 -4.8709998 -0.66799998
-4.6900001 -4.8720002 -0.66600001
-4.658 -4.869 -0.66299999
-4.6360002 -4.8769999 -0.66100001
-4.5949998 -4.8639998 -0.65700001
-4.5669999 -4.8649998 -0.65399998
-4.5409999 -4.868 -0.65200001
-4.5139999 -4.855 -0.64899999
-4.4879999 -4.8579998 -0.64700001
-4.4530001 -4.8499999 -0.64300001
-4.4299998 -4.855 -0.64099997
-4.402 -4.8559999 -0.639
-4.3800001 -4.862 -0.63800001
-4.3569999 -4.8670001 -0.63599998
-4.3610001 -4.8870001 -0.639
-4.3260002 -4.8790002 -0.63499999
-4.2950001 -4.8740001 -0.63200003
-4.2729998 -4.8800001 -0.63099998
-4.2319999 -4.8639998 -0.625
-4.2140002 -4.8740001 -0.625
-4.1810002 -4.868 -0.62199998
-4.1669998 -4.8670001 -0.62
-4.1389999 -4.8649998 -0.61799997
-4.1129999 -4.8660002 -0.616
-4.0960002 -4.8759999 -0.61500001
-4.0710001 -4.8779998 -0.61400002
-4.0380001 -4.8699999 -0.61000001
-4.0190001 -4.8779998 -0.60900003
-3.9990001 -4.869 -0.60699999
-3.9660001 -4.8600001 -0.60299999
-3.934 -4.8520002 -0.60000002
-3.915 -4.8600001 -0.59899998
-3.882 -4.8509998 -0.59600002
-3.8599999 -4.8530002 -0.59399998
-3.836 -4.855 -0.59200001
-3.809 -4.8530002 -0.58999997
-3.8010001 -4.8569999 -0.58999997
-3.7720001 -4.8520002 -0.58700001
-3.7409999 -4.8429999 -0.58399999
-3.7119999 -4.8379998 -0.58099997
-3.6159999 -4.744 -0.56400001
-3.651 -4.822 -0.574
-3.6440001 -4.8429999 -0.57599998
-3.6340001 -4.8449998 -0.57499999
-3.5669999 -4.7880001 -0.565
-3.5599999 -4.8109999 -0.56599998
-3.523 -4.7919998 -0.56199998
-3.5280001 -4.8299999 -0.56599998
-3.517 -4.8470001 -0.56699997
-3.497 -4.8520002 -0.56599998
-3.4790001 -4.8429999 -0.56400001
-3.4489999 -4.8330002 -0.56
-3.4289999 -4.8369999 -0.55900002
-3.405 -4.835 -0.55699998
-3.3659999 -4.8130002 -0.55199999
-3.348 -4.8189998 -0.551
-3.286 -4.763 -0.54100001
-3.2579999 -4.7389998 -0.53600001
-3.23 -4.7290001 -0.53299999
-3.22 -4.7459998 -0.53399998
-3.191 -4.7360001 -0.53100002
-3.1659999 -4.7309999 -0.52899998
-3.1459999 -4.7329998 -0.528
-3.1259999 -4.7350001 -0.52700001
-3.108 -4.7249999 -0.52399999
-3.0969999 -4.7389998 -0.52499998
-3.069 -4.7290001 -0.52200001
-3.0580001 -4.7459998 -0.523
-3.036 -4.743 -0.52100003
-3.0120001 -4.7399998 -0.51899999
-2.987 -4.7319999 -0.51700002
-2.9630001 -4.7280002 -0.51499999
-2.9549999 -4.7309999 -0.514
-2.9289999 -4.724 -0.51200002
-2.9059999 -4.7189999 -0.50999999
-2.8829999 -4.7150002 -0.50800002
-2.8729999 -4.7329998 -0.509
-2.852 -4.7309999 -0.50700003
-2.823 -4.717 -0.50400001
-2.829 -4.743 -0.50700003
-2.799 -4.7259998 -0.50300002
-2.7720001 -4.7150002 -0.5
-2.7650001 -4.737 -0.50199997
-2.7420001 -4.7319999 -0.5
-2.717 -4.723 -0.498
-2.7030001 -4.7340002 -0.498
-2.6889999 -4.7259998 -0.49599999
-2.665 -4.7189999 -0.49399999
-2.645 -4.7189999 -0.493
-2.6289999 -4.723 -0.49200001
-2.6170001 -4.737 -0.493
-2.5880001 -4.7210002 -0.48899999
-2.575 -4.7319999 -0.49000001
-2.5569999 -4.7150002 -0.48699999
-2.543 -4.7249999 -0.48699999
-2.5239999 -4.7259998 -0.486
-2.506 -4.7290001 -0.48500001
-2.4890001 -4.7309999 -0.48500001
-2.4660001 -4.723 -0.48199999
-2.45 -4.7290001 -0.48199999
-2.4400001 -4.7280002 -0.48100001
-2.4200001 -4.7270002 -0.47999999
-2.4200001 -4.763 -0.484
-2.408 -4.7750001 -0.48500001
-2.3929999 -4.7849998 -0.48500001
-2.3410001 -4.7179999 -0.47499999
-2.332 -4.7379999 -0.47600001
-2.322 -4.7360001 -0.47600001
-2.303 -4.7340002 -0.47400001
-2.2850001 -4.7360001 -0.47299999
-2.276 -4.7540002 -0.47499999
-2.2590001 -4.7579999 -0.47499999
-2.2720001 -4.8239999 -0.48300001
-2.2880001 -4.895 -0.49200001
-2.2720001 -4.881 -0.48899999
-2.263 -4.9029999 -0.49200001
-2.26 -4.9369998 -0.495
-2.2550001 -4.967 -0.49900001
-2.257 -5.0120001 -0.50400001
-2.2550001 -5.0500002 -0.50800002
-2.2520001 -5.086 -0.51200002
-2.2639999 -5.1329999 -0.51800001
-2.2650001 -5.1799998 -0.52399999
-2.2609999 -5.2140002 -0.528
-2.256 -5.2490001 -0.53200001
-2.2539999 -5.2880001 -0.53600001
-2.141 -5.1139998 -0.50999999
-3.779 -9.177 -1.0700001
-3.753 -9.1940002 -1.071
-3.77 -9.3199997 -1.087
-2.0179999 -5.066 -0.498
-2.0090001 -5.0910001 -0.50099999
-2.0039999 -5.1009998 -0.50199997
-3.8299999 -9.7720003 -1.143
-3.8010001 -9.9729996 -1.166
-3.8570001 -10.215 -1.197
-3.8900001 -10.399 -1.221
-3.7149999 -9.9820004 -1.163
-3.562 -9.6660004 -1.118
-3.556 -9.743 -1.127
-3.5109999 -9.7159996 -1.122
-3.6470001 -10.188 -1.1849999
-3.6600001 -10.327 -1.202
-1.76 -5.0539999 -0.48500001
-3.8859999 -11.236 -1.321
-3.823 -11.169 -1.311
-3.711 -10.956 -1.28
-4.152 -12.373 -1.47
-3.526 -10.631 -1.233
-3.4960001 -10.653 -1.235
-4 -12.306 -1.456
-4.0450001 -12.509 -1.482
-1.622 -5.119 -0.48800001
-4.2210002 -13.629 -1.625
-3.9649999 -12.95 -1.533
-1.515 -5.0609999 -0.477
-1.5140001 -5.0840001 -0.479
-3.902 -13.261 -1.569
-3.859 -13.271 -1.568
-3.8599999 -13.428 -1.5880001
-4.066 -14.747 -1.757
-4.0619998 -14.914 -1.778
-1.339 -5.0419998 -0.46799999
-1.329 -5.0700002 -0.47099999
-1.318 -5.0929999 -0.47400001
-4.6110001 -17.905001 -2.165
-4.5700002 -17.976999 -2.1730001
-4.4359999 -17.922001 -2.1619999
-1.251 -5.0650001 -0.46799999
-4.3909998 -17.981001 -2.168
-4.335 -17.997999 -2.168
-4.2610002 -17.938 -2.1589999
-4.2160001 -17.997999 -2.165
-4.1869998 -18.004999 -2.165
-4.131 -18.02 -2.165
-4.0760002 -18.040001 -2.1659999
-4.066 -18.257999 -2.1930001
-3.9619999 -18.059999 -2.165
-3.8659999 -18.028 -2.1589999
-1.073 -5.0570002 -0.46200001
-3.8150001 -18.066999 -2.1619999
-3.7590001 -18.083 -2.1630001
-3.701 -18.091999 -2.1630001
-3.651 -18.135 -2.1670001
-3.5910001 -18.131001 -2.165
-3.5239999 -18.09 -2.158
-3.46 -18.066999 -2.1530001
-3.4449999 -18.141001 -2.1619999
-3.3529999 -17.966999 -2.138
-3.26 -18.098 -2.1530001
-0.91900003 -5.1129999 -0.465
-3.1989999 -18.417999 -2.191
-3.1099999 -18.246 -2.168
-0.83399999 -5.053 -0.456
-0.81999999 -5.0679998 -0.458
-2.8940001 -18.184999 -2.1559999
-2.8429999 -18.231001 -2.161
-2.822 -18.476999 -2.191
-0.74000001 -5.0760002 -0.45699999
-0.72899997 -5.0560002 -0.454
-0.713 -5.0599999 -0.454
-0.69800001 -5.0679998 -0.45500001
-2.4619999 -18.226 -2.1530001
-2.405 -18.238001 -2.1530001
-2.332 -18.125 -2.138
-0.62400001 -5.0619998 -0.45300001
-0.60900003 -5.0710001 -0.454
-2.138 -18.191 -2.1429999
-2.0580001 -18.004999 -2.118
-0.54699999 -5.0929999 -0.456
-0.52899998 -5.0760002 -0.454
-1.876 -18.184 -2.1389999
-1.821 -18.202 -2.1400001
-1.763 -18.200001 -2.1389999
-1.704 -18.195 -2.138
-1.647 -18.195999 -2.1370001
-1.59 -18.200001 -2.1370001
-1.5599999 -18.194 -2.1359999
-1.501 -18.177 -2.1329999
-1.446 -18.202 -2.1359999
-1.324 -18.108999 -2.1229999
-0.36700001 -5.053 -0.449
-1.2130001 -18.163 -2.1289999
-1.184 -18.150999 -2.1270001
-1.127 -18.164 -2.128
-1.0700001 -18.162001 -2.128
-1.012 -18.143 -2.125
-0.954 -18.145 -2.125
-0.89499998 -18.094 -2.118
-0.83999997 -18.15 -2.125
-0.80800003 -18.056 -2.112
-0.193 -5.092 -0.45300001
-0.177 -5.0949998 -0.45300001
-0.161 -5.0970001 -0.45300001
-0.145 -5.092 -0.45199999
-0.12899999 -5.098 -0.45300001
-0.113 -5.0929999 -0.45199999
-0.105 -5.0970001 -0.45300001
-0.089000002 -5.1090002 -0.454
-0.072999999 -5.0960002 -0.45300001
-0.057 -5.0960002 -0.45300001
-0.041000001 -5.0700002 -0.449
-0.025 -5.0960002 -0.45300001
-0.0089999996 -5.066 -0.449
0.0070000002 -5.086 -0.45100001
0.015 -5.1040001 -0.454
0.030999999 -5.098 -0.45300001
0.046999998 -5.0999999 -0.45300001
0.063000001 -5.1020002 -0.45300001
0.079000004 -5.0970001 -0.45300001
0.094999999 -5.0970001 -0.45300001
0.111 -5.1030002 -0.454
0.119 -5.0869999 -0.45199999
0.13500001 -5.0760002 -0.44999999
0.15099999 -5.0879998 -0.45199999
0.168 -5.1209998 -0.456
0.64200002 -18.108999 -2.118
0.69999999 -18.136 -2.122
0.72899997 -18.146999 -2.1229999
0.78399998 -18.099001 -2.118
0.84200001 -18.128 -2.122
0.89600003 -18.072001 -2.115
0.95599997 -18.121 -2.1210001
1.012 -18.108 -2.1199999
1.075 -18.201 -2.1329999
0.32800001 -5.1090002 -0.456
1.265 -18.046 -2.1140001
1.323 -18.063999 -2.1170001
1.377 -18.016001 -2.112
1.425 -17.910999 -2.099
1.461 -18.007 -2.1110001
1.52 -18.034 -2.115
1.573 -17.976 -2.109
1.648 -18.188 -2.1359999
1.798 -17.947001 -2.108
0.51300001 -5.0960002 -0.456
1.8150001 -17.841 -2.0940001
1.853 -17.653999 -2.0710001
0.56699997 -5.0700002 -0.45300001
0.58999997 -5.138 -0.46200001
2.095 -17.802999 -2.0929999
2.1530001 -17.822001 -2.0969999
2.187 -17.864 -2.102
2.2190001 -17.664 -2.0780001
0.67500001 -5.0910001 -0.458
0.68800002 -5.0669999 -0.45500001
0.708 -5.1009998 -0.46000001
2.5090001 -17.715 -2.089
2.5710001 -17.955 -2.1199999
2.602 -17.77 -2.098
0.79799998 -5.2080002 -0.47499999
0.80400002 -5.1409998 -0.46599999
0.80199999 -5.0170002 -0.45100001
0.80900002 -4.9629998 -0.44400001
0.81699997 -4.908 -0.43700001
0.815 -4.848 -0.43000001
0.81800002 -4.7709999 -0.41999999
0.83200002 -4.7620001 -0.419
0.84600002 -4.7540002 -0.41800001
0.86000001 -4.7470002 -0.41800001
0.87599999 -4.7519999 -0.419
0.89499998 -4.7729998 -0.42199999
0.91799998 -4.77 -0.42199999
0.93900001 -4.7969999 -0.426
0.954 -4.7940001 -0.426
0.96799999 -4.7870002 -0.426
0.97799999 -4.7589998 -0.42199999
0.99000001 -4.7399998 -0.41999999
0.99800003 -4.744 -0.421
1.01 -4.7249999 -0.419
1.027 -4.7340002 -0.41999999
1.045 -4.744 -0.42199999
1.063 -4.756 -0.42399999
1.072 -4.724 -0.41999999
1.092 -4.7459998 -0.42399999
1.104 -4.7270002 -0.42199999
1.114 -4.7389998 -0.42399999
1.131 -4.7410002 -0.42399999
1.147 -4.7449999 -0.42500001
1.164 -4.7470002 -0.426
1.174 -4.7259998 -0.42399999
1.194 -4.744 -0.42699999
1.209 -4.7399998 -0.42699999
1.221 -4.757 -0.42899999
1.233 -4.7379999 -0.42699999
1.25 -4.7459998 -0.42899999
1.26 -4.7210002 -0.426
1.283 -4.7490001 -0.43000001
1.296 -4.7360001 -0.42899999
1.314 -4.743 -0.43000001
1.321 -4.743 -0.43099999
1.336 -4.737 -0.43000001
1.354 -4.7459998 -0.43200001
1.365 -4.7259998 -0.43000001
1.386 -4.743 -0.433
1.395 -4.7199998 -0.43000001
1.418 -4.744 -0.43399999
1.419 -4.7189999 -0.43099999
1.443 -4.743 -0.435
1.461 -4.7509999 -0.43700001
1.474 -4.7389998 -0.43599999
1.4910001 -4.7399998 -0.43599999
1.506 -4.737 -0.43700001
1.523 -4.7399998 -0.43799999
1.531 -4.7379999 -0.43799999
1.549 -4.7420001 -0.43900001
1.561 -4.7280002 -0.43799999
1.577 -4.7270002 -0.43799999
1.595 -4.7309999 -0.43900001
1.613 -4.7379999 -0.44100001
1.624 -4.7189999 -0.43900001
1.635 -4.7280002 -0.44100001
1.656 -4.7399998 -0.44299999
1.673 -4.7420001 -0.44400001
1.689 -4.7410002 -0.44499999
1.706 -4.7410002 -0.44499999
1.7180001 -4.7280002 -0.44400001
1.74 -4.7410002 -0.447
1.7460001 -4.7350001 -0.44600001
1.761 -4.7290001 -0.44600001
1.7819999 -4.7399998 -0.449
1.789 -4.7140002 -0.44600001
1.825 -4.7639999 -0.45300001
1.858 -4.8070002 -0.46000001
1.878 -4.8119998 -0.46200001
1.895 -4.8330002 -0.465
1.913 -4.8369999 -0.46599999
1.927 -4.8270001 -0.46599999
1.946 -4.8299999 -0.46700001
1.965 -4.8330002 -0.46799999
1.984 -4.836 -0.46900001
2 -4.8330002 -0.47
2.0079999 -4.8299999 -0.47
2.0250001 -4.8280001 -0.47
2.0450001 -4.8340001 -0.472
2.0610001 -4.829 -0.472
2.0780001 -4.8270001 -0.47299999
2.0969999 -4.829 -0.47400001
2.112 -4.823 -0.47400001
2.1270001 -4.8369999 -0.477
2.1359999 -4.816 -0.47499999
2.1589999 -4.8280001 -0.477
2.1789999 -4.8319998 -0.479
2.197 -4.8299999 -0.47999999
2.2160001 -4.8319998 -0.48100001
2.224 -4.809 -0.479
2.247 -4.8200002 -0.48100001
2.2579999 -4.8239999 -0.48199999
2.276 -4.822 -0.48300001
2.3010001 -4.836 -0.486
2.3180001 -4.8330002 -0.486
2.3239999 -4.8060002 -0.484
2.3599999 -4.8410001 -0.49000001
2.362 -4.8270001 -0.48800001
2.385 -4.835 -0.49000001
2.4000001 -4.8280001 -0.49000001
2.421 -4.8309999 -0.49200001
2.437 -4.8270001 -0.493
2.45 -4.8140001 -0.49200001
2.4809999 -4.8379998 -0.49599999
2.483 -4.8239999 -0.495
2.5109999 -4.8410001 -0.498
2.5320001 -4.8429999 -0.5
2.5450001 -4.8319998 -0.49900001
2.553 -4.8099999 -0.49700001
2.5829999 -4.8299999 -0.50099999
2.596 -4.8179998 -0.50099999
2.6170001 -4.8200002 -0.50199997
2.6389999 -4.842 -0.50599998
2.6440001 -4.8169999 -0.50400001
2.674 -4.8340001 -0.50700003
2.684 -4.8169999 -0.50599998
2.707 -4.823 -0.50800002
2.7249999 -4.8189998 -0.509
2.7509999 -4.8299999 -0.51200002
2.7590001 -4.8249998 -0.51200002
2.7720001 -4.8130002 -0.51099998
2.8039999 -4.8340001 -0.51599997
2.8180001 -4.823 -0.51499999
2.8369999 -4.8210001 -0.51599997
2.849 -4.8070002 -0.51599997
2.868 -4.8049998 -0.51700002
2.8870001 -4.8189998 -0.51899999
2.9189999 -4.8390002 -0.52399999
2.9300001 -4.823 -0.523
2.9560001 -4.8309999 -0.52499998
2.9820001 -4.8400002 -0.528
3.0050001 -4.8429999 -0.52999997
3.0350001 -4.8569999 -0.53299999
3.0469999 -4.8610001 -0.53500003
3.049 -4.829 -0.53100002
3.0699999 -4.8299999 -0.53299999
3.1110001 -4.8600001 -0.53899997
3.1070001 -4.8200002 -0.53399998
3.1359999 -4.8319998 -0.53799999
3.1530001 -4.8239999 -0.53799999
3.1700001 -4.8340001 -0.54000002
3.1819999 -4.8189998 -0.53899997
3.2060001 -4.822 -0.54100001
3.227 -4.822 -0.54299998
3.2720001 -4.8559999 -0.55000001
3.2709999 -4.8210001 -0.546
3.3169999 -4.8569999 -0.55299997
3.3139999 -4.835 -0.551
3.3329999 -4.8319998 -0.55199999
3.375 -4.8600001 -0.55800003
3.3789999 -4.8330002 -0.55500001
3.3959999 -4.8239999 -0.55500001
3.4230001 -4.8319998 -0.55800003
3.4430001 -4.8270001 -0.55900002
3.4560001 -4.8299999 -0.56099999
3.4879999 -4.842 -0.56400001
3.506 -4.835 -0.565
3.52 -4.823 -0.565
3.539 -4.8169999 -0.565
3.572 -4.829 -0.56900001
3.5899999 -4.823 -0.56999999
3.618 -4.829 -0.57300001
3.625 -4.822 -0.57200003
3.6570001 -4.8330002 -0.57599998
3.6730001 -4.823 -0.57599998
3.697 -4.822 -0.57800001
3.727 -4.8309999 -0.58099997
3.747 -4.8260002 -0.58200002
3.7609999 -4.8280001 -0.58399999
3.7880001 -4.8309999 -0.58600003
3.8110001 -4.829 -0.588
3.835 -4.8280001 -0.58899999
3.8670001 -4.8379998 -0.59299999
3.8859999 -4.8299999 -0.59399998
3.905 -4.822 -0.59500003
3.925 -4.8319998 -0.597
3.9489999 -4.8299999 -0.59899998
3.9690001 -4.8239999 -0.60000002
3.9979999 -4.8280001 -0.60299999
4.0229998 -4.8280001 -0.60500002
4.0450001 -4.823 -0.60600001
4.0760002 -4.8299999 -0.60900003
4.105 -4.8340001 -0.61199999
4.119 -4.835 -0.61299998
4.1500001 -4.8400002 -0.616
4.1700001 -4.8330002 -0.61699998
4.2080002 -4.8449998 -0.62199998
4.2290001 -4.8400002 -0.62300003
4.2519999 -4.835 -0.62400001
4.2839999 -4.8410001 -0.62800002
4.3039999 -4.848 -0.63
4.2989998 -4.8119998 -0.62599999
4.3119998 -4.796 -0.62599999
4.3099999 -4.763 -0.62199998
4.3150001 -4.7389998 -0.62099999
4.3390002 -4.7360001 -0.62199998
4.3660002 -4.7350001 -0.625
4.3860002 -4.7420001 -0.62699997
4.4169998 -4.7449999 -0.63
4.441 -4.7420001 -0.63200003
4.4569998 -4.7290001 -0.63200003
4.5009999 -4.7449999 -0.63700002
4.5289998 -4.7459998 -0.63999999
4.5539999 -4.7410002 -0.64200002
4.585 -4.7589998 -0.64600003
4.6079998 -4.7529998 -0.648
4.6469998 -4.7639999 -0.65200001
4.6900001 -4.7779999 -0.65700001
4.7290001 -4.7870002 -0.66100001
4.7480001 -4.776 -0.662
4.763 -4.7610002 -0.662
4.7789998 -4.7620001 -0.66399997
4.8080001 -4.7610002 -0.66600001
4.8439999 -4.7670002 -0.67000002
4.9310002 -4.823 -0.68300003
4.987 -4.848 -0.69
5.0209999 -4.8499999 -0.69400001
5.0630002 -4.8600001 -0.699
5.072 -4.8540001 -0.699
5.1020002 -4.8520002 -0.70099998
5.1360002 -4.8530002 -0.70499998
5.1690001 -4.855 -0.708
5.2080002 -4.8600001 -0.71200001
5.243 -4.8629999 -0.71600002
5.2779999 -4.8639998 -0.71899998
5.3070002 -4.8759999 -0.72299999
5.3309999 -4.8670001 -0.72399998
5.3649998 -4.868 -0.727
5.3969998 -4.8660002 -0.73000002
5.428 -4.8629999 -0.73299998
5.4520001 -4.8540001 -0.73500001
5.4910002 -4.8579998 -0.73900002
5.526 -4.8579998 -0.74199998
5.559 -4.8720002 -0.74599999
5.6009998 -4.8779998 -0.75099999
5.6269999 -4.869 -0.75300002
5.6669998 -4.8740001 -0.75700003
5.7010002 -4.8709998 -0.75999999
5.7399998 -4.8740001 -0.764
5.7690001 -4.8829999 -0.76800001
5.796 -4.875 -0.76999998
5.8340001 -4.8759999 -0.773
5.8759999 -4.8790002 -0.778
5.9089999 -4.8759999 -0.78100002
5.9460001 -4.875 -0.78399998
5.9759998 -4.869 -0.787
6.0159998 -4.8699999 -0.79100001
6.0419998 -4.8759999 -0.79400003
6.0749998 -4.8709998 -0.79699999
6.119 -4.875 -0.80199999
6.1469998 -4.8660002 -0.80400002
6.1830001 -4.862 -0.80699998
6.21 -4.8530002 -0.80900002
6.2620001 -4.8769999 -0.81599998
6.3000002 -4.8759999 -0.81999999
6.3340001 -4.8709998 -0.82300001
6.3800001 -4.8740001 -0.82800001
6.4169998 -4.8699999 -0.83099997
6.4590001 -4.8709998 -0.83600003
6.5110002 -4.8779998 -0.84100002
6.553 -4.8779998 -0.84600002
6.5799999 -4.881 -0.84899998
6.6269999 -4.8839998 -0.85399997
6.6739998 -4.8870001 -0.85900003
6.7059999 -4.8779998 -0.861
6.7470002 -4.875 -0.86500001
6.7919998 -4.8759999 -0.87
6.835 -4.875 -0.875
6.875 -4.8870001 -0.88
6.9060001 -4.8769999 -0.88200003
6.948 -4.8730001 -0.88599998
7.0100002 -4.8850002 -0.89399999
7.0370002 -4.8699999 -0.89499998
7.085 -4.8709998 -0.89999998
7.1290002 -4.869 -0.90499997
7.1680002 -4.8790002 -0.91000003
7.21 -4.8740001 -0.91399997
7.256 -4.8730001 -0.91900003
7.3060002 -4.8730001 -0.92400002
7.348 -4.868 -0.92799997
7.401 -4.8699999 -0.93400002
7.454 -4.8720002 -0.94
7.4899998 -4.8779998 -0.94400001
7.5419998 -4.8790002 -0.94999999
7.5910001 -4.8759999 -0.95499998
7.6339998 -4.8709998 -0.95899999
7.6849999 -4.869 -0.96399999
7.7340002 -4.8660002 -0.96899998
7.796 -4.8720002 -0.977
7.8340001 -4.8779998 -0.98100001
7.8839998 -4.8759999 -0.986
7.9450002 -4.8790002 -0.99299997
8.0030003 -4.8800001 -1
8.052 -4.875 -1.005
8.1129999 -4.8779998 -1.012
8.1789999 -4.8829999 -1.0190001
8.224 -4.8930001 -1.025
8.2840004 -4.8930001 -1.031
8.3540001 -4.8990002 -1.039
8.4020004 -4.8920002 -1.044
8.4619999 -4.8920002 -1.051
8.5120001 -4.8850002 -1.056
8.5799999 -4.8889999 -1.064
8.6300001 -4.881 -1.069
8.6689997 -4.8850002 -1.073
8.7270002 -4.882 -1.08
8.7950001 -4.8839998 -1.087
8.8739996 -4.8920002 -1.097
8.9119997 -4.8759999 -1.1
8.974 -4.8740001 -1.107
9.0430002 -4.8930001 -1.1160001
9.0979996 -4.8860002 -1.122
9.1639996 -4.8850002 -1.1289999
9.2360001 -4.8860002 -1.137
9.3000002 -4.8829999 -1.1440001
9.3629999 -4.8790002 -1.151
9.4359999 -4.8790002 -1.159
9.4980001 -4.8930001 -1.1670001
9.5979996 -4.9060001 -1.1799999
9.6560001 -4.8979998 -1.186
9.7410002 -4.9029999 -1.1950001
9.8199997 -4.9039998 -1.205
9.8850002 -4.8979998 -1.212
9.9569998 -4.895 -1.22
10.038 -4.915 -1.23
10.108 -4.9109998 -1.238
10.188 -4.9099998 -1.247
10.259 -4.9050002 -1.255
10.351 -4.9089999 -1.266
10.422 -4.9029999 -1.274
10.524 -4.9109998 -1.286
10.579 -4.8959999 -1.2920001
10.635 -4.902 -1.298
10.722 -4.902 -1.309
10.808 -4.9000001 -1.319
10.912 -4.9060001 -1.331
11.016 -4.9109998 -1.3430001
11.117 -4.915 -1.355
11.208 -4.9130001 -1.3660001
11.263 -4.9169998 -1.373
11.348 -4.9109998 -1.382
11.44 -4.9089999 -1.393
11.537 -4.908 -1.404
11.635 -4.9060001 -1.416
11.754 -4.914 -1.4299999
11.757 -4.8709998 -1.428
11.741 -4.8429999 -1.425
11.761 -4.8080001 -1.426
11.864 -4.8070002 -1.438
11.942 -4.7950001 -1.447
12.029 -4.7859998 -1.457
12.132 -4.7839999 -1.469
12.249 -4.7849998 -1.483
12.591 -4.8969998 -1.529
12.71 -4.8979998 -1.543
12.829 -4.8969998 -1.557
12.959 -4.901 -1.573
13.073 -4.8969998 -1.586
13.142 -4.8759999 -1.594
13.191 -4.8470001 -1.598
13.206 -4.829 -1.599
13.236 -4.7930002 -1.601
13.251 -4.7519999 -1.601
13.266 -4.71 -1.601
13.286 -4.6700001 -1.602
13.299 -4.6279998 -1.602
13.313 -4.586 -1.602
13.311 -4.5619998 -1.6
13.316 -4.5170002 -1.599
13.317 -4.4699998 -1.597
13.346 -4.434 -1.599
13.363 -4.3930001 -1.6
13.381 -4.3520002 -1.6
13.396 -4.3109999 -1.601
13.412 -4.2690001 -1.601
13.411 -4.2459998 -1.6
13.413 -4.1999998 -1.598
13.418 -4.1560001 -1.597
13.435 -4.1149998 -1.598
13.446 -4.072 -1.598
13.448 -4.026 -1.596
13.454 -3.9820001 -1.595
13.455 -3.9590001 -1.595
13.46 -3.915 -1.594
13.474 -3.8729999 -1.594
13.482 -3.829 -1.5930001
13.485 -3.7839999 -1.592
13.494 -3.7409999 -1.592
13.485 -3.6930001 -1.589
13.489 -3.6719999 -1.589
13.51 -3.632 -1.59
13.512 -3.5869999 -1.589
13.519 -3.543 -1.5880001
13.528 -3.5 -1.5880001
13.535 -3.457 -1.587
13.544 -3.414 -1.587
13.548 -3.392 -1.587
13.57 -3.352 -1.5880001
13.598 -3.3139999 -1.591
13.629 -3.276 -1.594
13.637 -3.233 -1.5930001
13.622 -3.184 -1.59
13.611 -3.1359999 -1.587
13.606 -3.1129999 -1.586
13.616 -3.0699999 -1.586
13.645 -3.0320001 -1.5880001
13.664 -2.9909999 -1.59
13.685 -2.95 -1.591
13.683 -2.905 -1.59
13.709 -2.8659999 -1.592
13.716 -2.845 -1.592
13.719 -2.8 -1.592
13.739 -2.76 -1.5930001
